ply
format ascii 1.0
comment 
element vertex 787
property float x
property float y
property float z
property float nx
property float ny
property float nz
element face 0
property list uchar int vertex_indices
end_header
-25.63758 -49.98826 55.47824 -0.182878 -0.629742 0.7549706 
-34.27064 -36.78508 46.40341 -0.8448887 -0.2412105 0.4774724 
-37.1427 -8.999535 20.87305 -0.1899907 0.3855594 -0.9029106 
-36.99852 -9.116992 20.7926 -0.1938454 0.3950009 -0.8979973 
-33.70695 -9.073842 19.24442 -0.7324716 -0.4040709 -0.5479162 
12.17518 38.12592 31.64939 0.5755982 -0.1927004 0.7947034 
18.82975 -13.3007 7.568295 -0.7111558 -0.4848155 -0.5091287 
-35.08581 -8.919561 20.35755 -0.253498 0.01107083 -0.9672729 
-35.56063 -8.456528 20.62389 -0.680329 -0.1126345 -0.7242004 
-22.58685 -25.38076 46.8539 0.6124734 0.3458886 0.7108002 
35.06454 -28.54381 23.02633 0.9949687 -0.1001887 -0.0006464943 
-9.716334 29.13234 32.9875 -0.6186438 0.2684079 0.7384019 
29.33117 8.970207 23.50138 0.4044992 0.8548683 0.324931 
8.977334 12.94006 37.03845 0.5316504 0.5282931 0.6620083 
-35.4518 -5.495886 19.79196 -0.7753808 -0.008838326 -0.6314316 
18.85031 -8.593176 5.355827 -0.508214 -0.2764289 -0.815663 
28.92194 8.278638 25.1209 0.4766799 0.7309547 0.488345 
17.54186 -7.875844 5.970193 -0.5774368 -0.1202859 -0.8075261 
28.77038 7.518265 25.9189 0.4208529 0.3992345 0.8145521 
17.29244 -6.963511 6.053216 -0.5829666 -0.1103043 -0.8049744 
-26.64188 -4.700852 16.37391 -0.003050357 -0.199396 -0.9799139 
-34.47186 -2.61822 19.14509 -0.6499565 0.4804583 -0.5888267 
-38.40875 -15.11984 32.75983 -0.6157358 0.7264333 0.3052276 
-57.28872 42.90561 -5.013424 -0.5497249 -0.6921472 0.4676903 
-22.5361 -2.154134 15.14748 -0.01628661 -0.06438161 -0.9977928 
-22.02864 -0.9208845 14.90109 -0.2547283 -0.1423059 -0.9564849 
-31.07928 -0.7931771 17.02874 -0.5832887 0.03586881 -0.8114728 
16.97721 -1.991709 5.371861 -0.5181183 0.1191463 -0.8469701 
-22.83968 0.04265058 14.71364 0.04751633 -0.4164612 -0.9079112 
-25.23207 0.3676316 15.30427 -0.3056423 0.0568766 -0.9504461 
18.66127 -2.428837 4.545271 -0.2103677 0.1521992 -0.9657024 
-16.59855 -50.13766 52.43266 0.5707756 -0.7094983 0.4133137 
-25.32492 1.508875 15.20996 -0.3518406 -0.2190225 -0.9100755 
26.2204 -59.05381 16.95621 0.1936843 -0.9106452 0.3649819 
-3.26323 2.358507 8.992499 -0.4792021 -0.398408 -0.7820715 
-5.339893 3.995477 9.583082 -0.3452907 -0.9344049 -0.08753392 
-9.599222 6.783247 11.58673 -0.3445722 -0.652805 -0.674623 
-36.88029 40.35062 5.827721 -0.3252291 -0.9311678 0.1647779 
-35.54976 -31.18732 42.1567 -0.8872245 -0.4574579 -0.05970479 
5.216888 8.138971 5.569328 -0.07919177 -0.5407857 -0.8374239 
-9.412086 12.59846 8.040621 -0.5051907 -0.4472404 -0.738078 
-11.09381 19.35111 6.689156 -0.8326641 -0.04324153 -0.5520877 
8.16209 13.46965 3.183247 0.2044233 -0.2396298 -0.9490983 
-25.38316 -25.59632 48.40848 0.478462 0.2669888 0.8365348 
7.891306 17.09033 2.650972 0.5350149 -0.02110031 -0.8445797 
9.822989 8.158364 42.04296 0.580677 0.7710916 0.2612104 
35.06687 -22.55515 20.86868 0.9137277 0.2712896 -0.3024951 
-17.18465 42.92971 28.44573 -0.5969239 0.5875076 0.546367 
30.59023 2.802744 26.55044 0.8009719 0.4522858 0.3922773 
23.87528 16.69345 18.46338 0.9533881 0.3015831 -0.009918779 
-4.253223 45.7177 36.60689 -0.1404781 0.2650017 0.9539599 
26.53763 -53.86575 39.04303 -0.04408945 -0.9830469 0.1779738 
-20.18848 68.63034 18.03393 -0.8067961 0.5357703 0.2490577 
36.30634 -10.24598 12.03736 0.8784599 -0.3496115 -0.3256981 
30.76177 2.342966 26.7376 0.7986695 0.4589713 0.3891949 
-34.02813 40.00483 7.738402 -0.2077873 -0.9524091 0.2230269 
-23.73271 -16.09107 41.68736 0.4919947 0.5857421 0.6440868 
30.92953 2.081527 26.63448 0.840308 0.3333852 0.4274772 
-39.65184 42.75687 8.202393 -0.3728156 -0.7489613 0.5477813 
20.0642 -40.35012 29.95142 -0.6692417 -0.6739937 -0.312807 
18.76636 -26.19971 19.8362 -0.8690077 0.1719134 -0.4639737 
-46.55476 49.41489 8.314757 0.001674771 -0.02360857 0.9997196 
-45.95841 49.40047 8.36836 -0.1472776 0.01498148 0.988982 
6.382108 4.065518 32.58265 -0.05464544 -0.9810345 -0.1859683 
16.23608 -33.33086 29.90051 -0.9412045 -0.3274784 -0.08301522 
26.42529 -42.17649 28.5445 -0.5383711 -0.583419 -0.6080941 
-45.72179 55.09943 6.832798 -0.0725157 0.4349824 0.8975139 
-42.06682 57.07784 6.059347 -0.5519144 0.7789507 0.2977022 
-21.3811 -3.507631 39.73524 0.2880765 -0.2112231 0.9340222 
-22.38744 1.655678 40.49434 0.001809478 -0.175541 0.984471 
-36.96549 59.74624 3.121016 -0.1756813 0.9781631 -0.1110527 
11.3713 1.680825 43.25517 0.7314456 -0.6259425 -0.270523 
-15.78825 32.38604 21.33554 -0.8849887 -0.2099776 0.4155786 
-38.03381 -49.34618 33.70739 -0.8638554 0.4759837 -0.1649009 
-65.17445 44.25584 -31.04578 0.5715111 -0.7242121 -0.3858646 
-4.133641 40.81749 34.36047 -0.1418491 -0.7407877 0.6565909 
11.81529 37.54601 31.77452 0.5504913 -0.06072222 0.8326293 
35.41586 -60.94487 15.18193 0.5234706 -0.7668278 0.3714203 
-26.68037 -26.13259 48.72365 -0.08867876 0.1054219 0.9904659 
-17.66593 -27.48378 31.10676 0.8872987 -0.2956832 -0.3539379 
-11.21764 0.3622816 38.10212 0.6428987 -0.09621729 0.7598844 
-42.85198 -53.98627 35.03868 0.5262025 -0.6483846 -0.5501887 
26.99527 -57.03041 16.51361 0.8658251 0.4686772 -0.1751786 
31.69109 -57.96646 15.79409 -0.7505613 0.1191199 -0.6499761 
15.43874 1.805036 6.245133 -0.4485891 0.07633694 -0.8904719 
-38.3354 -26.28709 35.65137 -0.9803916 -0.1725356 0.09520649 
39.01075 -54.50854 28.70165 0.9759806 -0.215768 -0.03010275 
24.02018 -55.19014 17.02533 -0.5910609 0.6011865 -0.5377938 
-44.08593 -50.77036 33.79249 0.3967741 0.1800942 -0.9000759 
-34.64976 -51.27575 31.37455 -0.2751418 -0.06475776 -0.9592199 
-34.94855 -51.4214 31.46714 -0.2459648 -0.1270637 -0.9609147 
-35.40966 -50.88211 31.5731 -0.2888089 -0.0535225 -0.9558893 
-35.26694 -34.1771 42.17017 -0.9225375 0.08619228 0.3761592 
27.40713 -23.72789 8.193446 -0.6068845 -0.5027809 -0.6155504 
22.70865 31.43726 17.70144 0.9906151 -0.0371369 -0.1315409 
27.02072 -21.88837 7.779392 -0.7511003 -0.1275241 -0.6477548 
31.8733 -22.0375 7.114529 0.4770912 -0.2609377 -0.839223 
-19.62954 -37.59114 48.11664 0.8935011 -0.08103508 0.4416898 
-39.1891 -17.19428 24.59075 -0.7834685 -0.5163342 -0.3457988 
32.40783 -57.00201 28.64078 -0.1334895 -0.922163 0.3630364 
31.36038 -54.51483 37.93488 -0.1997379 -0.9759876 0.08691499 
-28.90778 -52.86331 43.64212 -0.124182 -0.9345312 0.333511 
30.46358 -19.7697 6.351955 0.1173106 -0.07795784 -0.9900308 
27.07129 -16.94412 5.654224 -0.07317974 -0.5561627 -0.8278457 
-31.03221 -14.18315 21.01051 0.01938942 -0.5732914 -0.8191223 
-21.5607 -49.48632 43.51465 0.6097099 -0.1850263 -0.770726 
31.41963 -35.05873 20.46952 0.6501048 -0.5929447 -0.4751631 
-29.72008 -12.30246 19.57199 -0.1734555 -0.682273 -0.7102225 
-12.47526 -0.740088 38.59062 0.6420224 -0.4517123 0.6194868 
-18.41348 -29.85981 31.18764 0.892395 -0.3368269 -0.3002972 
-35.61203 -8.594645 20.62624 -0.3534527 0.2048235 -0.9127528 
38.70169 -55.4641 28.7554 0.9332857 -0.3328351 0.134905 
11.28634 18.87268 34.749 0.2753129 -0.4785213 0.8337988 
18.12642 -11.12424 7.044197 -0.7535715 -0.2641508 -0.6019588 
11.4036 -4.960164 20.55518 -0.7929698 -0.5177953 0.3210716 
17.25453 -9.631405 7.03248 -0.691609 -0.5009309 -0.520332 
18.20928 -50.29421 43.57692 -0.999898 0.008970642 0.01108418 
-35.68927 -5.212669 20.23814 -0.8596664 0.1132999 -0.4981329 
-10.43106 46.45045 33.7263 -0.2960739 -0.2391771 0.9247345 
-20.78168 -6.426926 16.84902 0.2612691 -0.5497803 -0.7933977 
-20.76413 -4.904647 16.03472 0.214909 -0.3524065 -0.9108374 
-16.5971 -48.37324 52.13946 0.9185872 0.1264176 0.3744553 
26.88037 -7.243297 3.721777 0.2027712 -0.1947302 -0.9596684 
15.11029 -29.13925 28.33681 -0.9823936 0.185612 0.02124995 
-15.60519 -3.850356 16.95242 0.5743294 -0.4396857 -0.6905234 
-16.66439 24.48925 24.39884 -0.8961156 0.4397469 0.06000006 
-37.31446 -29.87613 36.60843 -0.941875 0.05698869 0.3310955 
27.07652 -6.438291 3.75123 0.08626465 0.01689461 -0.9961289 
-19.81522 -2.10653 15.12198 0.08523208 -0.3710107 -0.9247086 
25.75539 -4.613691 3.724804 0.3211232 0.2950259 -0.8999115 
-26.33586 -52.68694 45.12962 -0.1814068 -0.8791818 0.4406023 
-30.81307 0.8808579 17.05907 -0.4961914 0.2525221 -0.8306787 
23.88763 -2.680428 3.352236 0.02226053 0.1766116 -0.9840285 
19.47467 -1.156338 4.525934 -0.430339 0.2123446 -0.8773362 
22.39982 -1.420413 3.593014 -0.04245149 0.2332744 -0.9714842 
-31.60558 9.174377 29.81067 -0.9004983 0.4107709 0.1427271 
-26.51902 3.011276 15.45075 -0.4938393 -0.02641918 -0.8691515 
-6.297942 7.195176 7.991438 -0.889091 -0.07647198 -0.451297 
22.10534 -55.76612 33.28899 0.1316196 -0.9339791 0.3322031 
19.77672 -34.54876 22.29006 -0.5864052 -0.3661679 -0.7225307 
31.96613 -53.84505 40.61549 0.6690571 -0.4458164 0.5946513 
-26.56132 -52.58871 45.27055 -0.158793 -0.9112224 0.3800772 
21.93 -35.05687 22.19898 -0.07841104 -0.7891014 -0.6092381 
-24.20469 4.365851 14.86475 -0.1544487 0.2694894 -0.9505375 
32.66417 -20.40791 31.59401 0.2413201 0.8907155 0.3852146 
5.231794 14.06183 37.77562 0.1698169 0.5295001 0.8311391 
11.66957 31.97819 34.36407 -0.09198108 0.4773468 0.8738881 
-39.13194 43.53024 10.30611 -0.7418507 -0.5457145 0.3896826 
2.676887 4.934 7.353951 0.8156518 -0.3172128 -0.4838273 
-23.1816 -50.56589 54.51567 -0.127246 -0.9840711 0.1241436 
-7.138491 7.171099 9.181996 -0.7072294 -0.3275115 -0.6265482 
7.133481 8.291216 5.304182 -0.08765756 -0.5110685 -0.8550584 
13.50236 38.42292 30.94397 0.6070774 -0.1332282 0.783395 
-9.319677 11.96386 8.352413 -0.4850982 -0.3759755 -0.7895076 
20.44643 -0.4296069 4.256039 -0.2595606 0.2744282 -0.925914 
8.218899 9.783957 4.39238 -0.03324766 -0.4447668 -0.8950291 
8.624452 9.934336 4.30574 -0.03421655 -0.4277339 -0.903257 
25.27547 -35.35296 20.30996 -0.4800289 -0.5669838 -0.6694038 
5.332293 10.43067 4.507353 0.006141856 -0.5353717 -0.8445941 
5.637063 10.40268 4.523403 -0.04846893 -0.5383506 -0.8413263 
-23.56234 -18.25242 43.85976 0.422814 0.5533609 0.7176487 
-11.41754 18.13594 7.164054 -0.8464775 0.1037587 -0.522217 
-39.75895 -16.75283 26.32298 -0.8085967 -0.5754958 0.1223792 
9.539155 18.92107 2.556992 0.2473084 -0.4742244 -0.844955 
-15.45336 26.59914 6.122269 -0.7849079 -0.6166255 -0.06076677 
14.78941 37.48106 29.78925 0.6355426 0.03899482 0.7710797 
-21.33072 32.32603 6.553574 -0.7586046 -0.6501281 0.04304104 
20.94061 -48.14068 32.08861 -0.9673606 -0.07205086 -0.2429462 
-32.67412 -37.22956 36.09131 -0.1450338 -0.6368803 -0.757198 
-22.91361 34.73751 6.288273 -0.9355003 -0.3499298 0.04886774 
-32.17699 -7.792038 36.01532 -0.4555756 -0.2493903 0.8545493 
-4.033196 46.08753 36.53857 -0.1499394 0.2546196 0.9553464 
5.470173 8.311154 43.63044 -0.2960731 0.802802 0.5175422 
23.19626 -41.59835 29.32728 -0.3896427 -0.7966795 -0.4620388 
20.03518 -35.41561 22.781 -0.4609463 -0.6435354 -0.6110563 
-37.90602 41.69472 8.580028 -0.4780316 -0.8550985 0.2007316 
-20.98306 32.00334 6.854156 -0.6158323 -0.7877468 0.01434222 
-1.445476 22.75624 37.10236 -0.05175962 -0.198475 0.9787389 
36.6517 -57.07988 29.84746 0.1372799 -0.8907367 0.4332924 
-43.81427 47.29727 8.845579 -0.2147516 -0.1298534 0.9679977 
-44.83731 47.9716 8.723509 -0.2885171 -0.07667966 0.954399 
-46.0744 51.18082 8.185874 -0.1816611 0.1302364 0.9746993 
-21.66129 60.52294 24.7572 -0.7613161 0.257844 0.594907 
-0.2742319 20.87075 37.41616 -0.04916933 -0.0358336 0.9981475 
6.73083 20.38182 36.26186 0.2210126 -0.17247 0.9599001 
-41.52837 57.43839 6.135456 -0.5341951 0.8296519 0.1622176 
34.23584 -27.42499 16.78469 0.8627863 -0.3599176 -0.355049 
-37.18095 59.75396 3.766308 -0.2737969 0.9599828 -0.05888811 
-37.86028 59.50818 3.719847 -0.3934906 0.9179054 -0.05114527 
-30.44137 59.38001 1.875998 0.01822622 0.9544199 -0.297909 
-24.00023 -37.50097 33.70366 0.2367612 -0.7790611 -0.5805238 
-33.08047 -39.80073 37.84128 -0.8053545 -0.5877073 -0.07748778 
30.25866 -1.889159 27.57056 0.5332605 -0.02443068 0.8455988 
22.46309 -35.41208 22.44853 -0.2175555 -0.6721654 -0.7077171 
-9.173418 44.98766 34.61804 -0.5027677 0.7327981 0.4585105 
21.76845 -46.93795 31.28215 -0.5670015 0.5100887 -0.646776 
-47.95572 -55.14722 35.92667 -0.2632203 -0.7905326 0.5529674 
-35.38196 -55.12563 33.03394 0.4050731 -0.836722 -0.3685268 
-41.89583 -52.87586 34.71792 0.5099289 -0.5360721 -0.6727555 
23.28408 -57.93026 18.00713 -0.8873911 -0.3652984 -0.2812375 
33.97571 3.979367 19.36147 0.7955943 0.54552 0.2635109 
-42.59518 -52.38964 34.4358 0.4351768 -0.03904471 -0.899498 
-43.18912 -52.44714 34.13306 0.4613068 -0.1806199 -0.868661 
-19.31117 -48.16002 45.19198 0.8256637 0.05337468 -0.561632 
6.161518 8.397676 43.81989 -0.191478 0.75623 0.6256615 
-34.66476 -21.63595 24.39563 0.1552372 -0.2852121 -0.9458091 
-36.17439 -20.32706 25.24315 -0.8375792 0.08137293 -0.5402212 
27.46898 -25.29557 9.487733 -0.5395522 -0.6289053 -0.559786 
30.31102 -25.19979 8.250305 0.1120582 -0.6955834 -0.7096524 
-31.46615 -20.71362 23.25265 -0.3663748 0.1002146 -0.9250553 
32.81905 -52.07213 23.04665 0.8663316 0.3011997 -0.398432 
-17.21306 32.0508 17.79134 -0.7758272 -0.4354452 0.456597 
-35.27441 -18.30466 23.78776 -0.2381697 -0.6355131 -0.7344378 
-2.542342 44.29996 36.65553 -0.05795881 -0.2961902 0.9533688 
-17.66793 -35.56031 39.00777 0.8205425 -0.4781224 -0.3132228 
-31.30662 -15.53158 21.89729 0.1845434 -0.550864 -0.8139359 
30.80309 -6.715094 26.47827 0.2812683 -0.3037787 0.9102784 
6.780517 43.49248 34.35984 0.2575491 0.0822219 0.9627603 
29.49912 -18.7408 6.680364 -0.1701132 0.1754376 -0.969682 
19.9775 -16.65409 8.803278 -0.4361814 -0.358959 -0.8251628 
-25.32709 -39.82434 35.2257 0.06763688 -0.543568 -0.8366358 
19.20183 -14.54923 8.372452 -0.4953026 -0.5523409 -0.6705185 
18.12229 -13.59074 8.459613 -0.5345121 -0.4194551 -0.7337257 
18.7435 -13.8841 8.169579 -0.5779191 -0.4863417 -0.655348 
-20.43288 -20.20524 42.2221 0.7546016 0.546718 0.362873 
-21.70958 56.93926 25.69738 -0.7666163 0.0259212 0.6415816 
-36.44424 -8.09754 21.18041 -0.4627112 0.5371922 -0.7052104 
-23.05694 -7.69271 17.12098 0.2685823 -0.3477095 -0.89831 
15.49581 -8.218376 7.66448 -0.5689682 -0.2279648 -0.7901309 
35.26283 -56.6917 30.66928 -0.256438 -0.9033714 0.3437441 
-35.44 -48.7085 50.5848 -0.4231243 0.1563651 0.8924778 
-19.0712 -20.68319 29.71802 0.7166716 0.3324566 -0.6130694 
-27.31205 -19.30078 46.80954 0.4407844 0.3098695 0.8424304 
-26.54661 -50.43156 51.9567 0.02441541 -0.9840931 0.1759701 
15.21629 -4.674899 6.813047 -0.6022433 -0.264155 -0.753342 
-34.17381 -1.064593 19.28537 -0.8307585 -0.04730782 -0.5546187 
36.24663 -3.731379 15.6594 0.9507128 0.03473139 0.3081217 
29.7486 -6.407687 4.923384 0.6156332 0.02303573 -0.7876959 
15.53205 -12.25701 11.48794 -0.9320162 -0.3400964 -0.125219 
27.30375 -5.154282 3.876127 0.0808225 0.163706 -0.9831929 
-31.57209 -51.74254 46.45671 -0.009344826 -0.966642 0.2559608 
-19.64917 -1.222995 14.9019 0.1271815 -0.2454391 -0.9610329 
-18.78729 -1.852611 15.20057 0.1563097 -0.2266746 -0.961346 
23.81711 -20.72733 33.81648 -0.5224212 0.6380811 0.5656228 
36.0752 -3.555609 16.35181 0.9626791 0.1832998 0.1991239 
-19.63256 48.89727 27.45402 -0.8058328 -0.1925187 0.5599732 
-16.2185 27.88754 5.227242 -0.679365 -0.7186723 0.1482334 
25.5717 -20.19151 33.49072 -0.03797521 0.8147333 0.5785917 
24.89313 -3.246156 3.483383 0.4043254 0.1653762 -0.8995394 
-29.56936 10.54831 23.61407 -0.6559439 0.6845682 -0.3179694 
33.72367 -46.9143 37.0721 0.9231379 0.3264498 0.2030955 
-19.39194 47.6818 27.42635 -0.7177772 -0.1142384 0.6868379 
1.508811 42.95671 35.80287 0.690643 -0.4447526 0.5702689 
17.5065 0.1644268 5.023626 -0.1522551 0.04911104 -0.9871204 
20.59673 10.61096 6.799463 0.5742115 -0.08805253 -0.8139584 
17.63146 0.3833735 5.011556 -0.1878138 0.06896947 -0.9797798 
19.78764 0.8998539 4.2078 -0.2034853 -0.05109936 -0.9777438 
-21.77355 47.36496 24.22602 -0.8584948 -0.1568724 0.4882388 
-8.076719 7.360407 9.847728 -0.4175482 -0.4321597 -0.7993072 
3.692532 5.801978 7.571926 0.05039014 -0.5593302 -0.8274115 
-23.69701 -50.5293 54.32644 -0.08867828 -0.9920979 0.08875179 
-24.78772 -53.01321 44.92527 -0.05939459 -0.9412237 0.3325207 
10.31974 7.828004 4.87771 -0.3762045 -0.2229053 -0.8993242 
-10.446 9.584721 9.909785 -0.3706444 -0.3273399 -0.8691787 
10.99032 8.177341 4.653177 -0.1051321 -0.2997864 -0.9481958 
10.74702 9.062147 4.472668 -0.1592811 -0.108897 -0.9812092 
9.574972 9.677065 4.396662 0.03894082 -0.3632877 -0.9308634 
-13.29426 15.82782 9.723846 -0.8979707 0.2927846 -0.3285207 
-24.98458 50.41033 17.92821 -0.6200424 0.03469646 0.7838012 
-12.71149 17.08911 9.303513 -0.8523463 0.2345114 -0.4674507 
8.852697 15.8796 3.395689 0.6159515 -0.01892892 -0.7875561 
-17.46669 -34.75572 38.87597 0.939733 -0.1628864 -0.3006159 
-12.40332 17.8634 8.914509 -0.8730378 0.05389266 -0.4846658 
-11.89169 54.49671 33.98797 -0.5857187 -0.04706709 0.8091468 
22.152 31.01919 20.81962 0.9584078 0.1407481 0.2482843 
-13.69445 23.55818 7.013244 -0.7757707 -0.5587659 -0.2931897 
22.08137 30.82311 21.23895 0.9522077 0.1991807 0.2315779 
-12.11081 32.12334 30.18094 -0.7058433 -0.1826768 0.684408 
31.69187 -10.35222 5.550545 0.3240936 -0.1253017 -0.9376905 
22.22868 29.24085 21.47036 0.9676876 -0.1141255 0.2248461 
-28.86758 -45.0984 37.7885 0.3967106 0.532157 -0.7479504 
-29.99772 39.93446 7.457498 0.2404334 -0.9662428 -0.09255511 
-11.53898 21.92001 5.366208 -0.6239939 -0.7542146 -0.2044295 
-13.14375 11.12238 10.86217 -0.6863574 -0.5171486 -0.5113415 
-39.95983 43.41679 8.934165 -0.2646654 -0.7662304 0.5855288 
-38.86532 -19.68368 34.93783 -0.9015056 0.292849 0.3186321 
-41.47908 44.28144 8.905952 -0.5048557 -0.4592824 0.7308773 
-22.76674 35.1656 8.534994 -0.8713388 -0.4815251 0.09435385 
-27.32065 59.68297 2.004433 -0.8005384 0.5912973 -0.09749262 
-16.45909 29.36344 21.55215 -0.9189689 0.3930454 -0.03180213 
12.38817 -5.488556 9.509678 -0.7232825 -0.3543609 -0.592698 
-39.72333 58.5492 5.185708 -0.05601349 0.8235347 0.5644937 
29.96791 -49.72244 23.69395 0.2013504 0.5443126 -0.8143595 
-31.89532 59.78902 2.838875 0.2092114 0.9560764 -0.2053019 
9.324428 1.303047 39.84628 0.3063076 -0.6630719 -0.6830163 
22.12883 24.34798 12.40224 0.9375947 -0.1149565 -0.3281797 
10.74279 1.091714 43.0389 0.652017 -0.7469227 -0.1303099 
26.72368 -3.001961 29.09831 0.1666542 0.0320462 0.9854941 
28.19081 -49.54874 24.26389 -0.4126595 0.5993028 -0.6859645 
-20.23808 -21.84941 43.35198 0.7012455 0.2512994 0.6671608 
-20.84944 -35.78489 33.79237 0.5078394 -0.5543021 -0.6594306 
-30.42538 -38.16772 49.5551 -0.337301 0.3038208 0.8910227 
28.21194 10.97294 13.42183 0.3605045 0.8852246 -0.293962 
-20.38447 13.58878 37.29195 0.1012721 0.8179733 0.5662719 
-32.33671 7.600582 31.27771 -0.677792 0.7107697 0.1881601 
34.28135 -19.09568 20.30325 0.9731359 0.1403248 0.1825266 
-41.81279 -52.85104 34.71164 -0.2071044 -0.7552233 -0.6218892 
-20.43494 19.16701 25.47393 -0.6243368 0.7736047 -0.1083458 
31.23135 -59.073 17.27675 -0.7415476 -0.6557208 -0.1419082 
6.647181 -1.625155 45.8577 -0.4563355 -0.8193476 -0.3470277 
-33.38003 -54.4728 32.91419 0.3939801 -0.6428829 -0.6568727 
27.32947 -56.59206 18.77779 0.6288318 0.6984773 -0.3416126 
7.941479 -1.844772 45.63377 -0.02568824 -0.9213684 -0.3878399 
7.723152 -1.528417 44.99176 -0.0852062 -0.8985256 -0.4305715 
-47.89024 -51.78264 36.42877 -0.791961 0.3697517 0.4858833 
-38.62333 -50.89257 32.98518 -0.67529 0.7157035 -0.1781922 
-38.37411 -50.49717 33.28262 -0.827228 0.4089239 -0.3853241 
-46.0186 -49.09206 35.52304 -0.6272423 0.7699095 0.1174973 
-34.70359 -52.19659 44.99026 -0.021463 -0.9718311 0.2347009 
30.09965 10.24925 14.71156 0.6439553 0.7462355 -0.1686835 
-16.64787 17.97649 33.97964 -0.1392466 0.7072943 0.6930695 
-35.89706 -48.97239 32.25478 -0.09618866 0.7755488 -0.6239157 
-34.84709 -22.58928 25.20876 -0.4342447 -0.5880637 -0.6823584 
-32.32252 -53.45801 41.16788 -0.08091952 -0.9283077 0.362901 
31.36057 -51.76431 21.23621 -0.1354187 0.9587066 -0.2500865 
28.21441 -24.8764 8.401236 -0.4721769 -0.6211471 -0.6254803 
-34.5787 -19.63744 24.39212 -0.1997696 0.05152161 -0.9784878 
-14.00637 -6.156164 22.38216 0.5464025 -0.7474989 -0.3777427 
-30.3838 -19.74061 23.44182 0.346993 0.2321031 -0.9086936 
25.764 -22.67863 9.101797 -0.5037603 -0.3263076 -0.7998437 
21.38627 -14.98898 6.809452 -0.4795114 -0.4012057 -0.7804505 
20.99506 -14.53954 6.755431 -0.3757663 -0.5843595 -0.7192523 
1.309566 4.018285 22.87973 0.3512546 -0.8679696 0.3510687 
32.66286 -21.78235 7.748383 0.6443219 -0.06337957 -0.7621234 
3.294639 3.338574 21.98015 -0.5469032 -0.7234401 0.4213446 
30.19131 -56.89386 17.84324 -0.856552 0.1870153 -0.4809809 
28.64687 -17.4677 28.49189 0.4279796 0.2933887 0.8548424 
-30.56551 -16.31133 22.38446 0.1014845 -0.1978503 -0.9749649 
31.77119 -19.86655 6.885498 0.4856442 0.09881482 -0.8685542 
-28.74301 -14.45604 21.42382 0.1069941 -0.6293193 -0.7697461 
-25.41845 56.78799 16.38728 -0.7012409 0.3138681 0.6401161 
-28.28691 -15.12012 22.03176 0.1181325 -0.6253386 -0.7713598 
-29.35073 -6.592437 17.12885 0.05640614 -0.1841935 -0.98127 
-30.75393 -52.43801 34.97522 0.7924352 0.02435929 -0.60947 
-30.71666 -52.95332 35.08011 0.8831106 0.007600635 -0.4691029 
19.45504 -15.51336 8.78794 -0.5540498 -0.3079785 -0.77342 
-32.22747 8.037347 25.10316 -0.6982564 0.7049286 -0.1245528 
-22.14024 33.40274 6.011084 -0.7404284 -0.65156 -0.165033 
-21.673 57.69747 25.6772 -0.7776818 0.08559512 0.622803 
-8.464623 41.40435 34.01875 -0.1395116 -0.8343518 0.5332861 
-37.79208 -9.356669 20.90713 -0.3660975 0.3851815 -0.847118 
4.164425 0.3822957 15.47803 -0.4211435 -0.8898032 -0.1757505 
31.10356 6.266402 24.8823 0.6863574 0.5171486 0.5113415 
1.39518 8.62331 3.769585 0.158339 -0.3610955 -0.9189881 
16.24726 -10.48603 8.316637 -0.5012632 -0.5403082 -0.6758716 
-19.48184 -5.299267 16.70855 0.3458815 -0.3700481 -0.8622239 
34.30244 -20.77367 30.72355 0.6151634 0.755837 0.2242431 
-35.45496 -4.309773 19.64493 -0.9153077 0.04363824 -0.4003851 
25.478 12.76082 13.93778 0.5006078 0.8379456 -0.217347 
23.33085 17.11394 22.70192 0.8729641 0.3438261 0.346002 
13.7577 -4.358342 7.616181 -0.6589172 -0.06757613 -0.7491744 
16.64272 23.47171 31.81177 0.6477128 0.1648689 0.7438329 
14.92418 -1.91587 6.621396 -0.6297713 -0.3673732 -0.6844165 
14.17524 -1.730854 7.095696 -0.3870175 -0.2702071 -0.8815927 
-21.01143 52.98098 26.47213 -0.7263174 -0.1401301 0.6729239 
36.21252 -5.643497 15.99118 0.9950191 -0.06190231 0.07813612 
24.48055 14.43413 21.22571 0.9683795 0.2403837 0.06675237 
-19.399 -23.99783 43.66912 0.7767638 0.2813057 0.5634769 
-28.2315 3.846665 16.75581 -0.5259042 0.1612485 -0.8351183 
16.62076 1.223158 5.430071 -0.3851988 0.1435338 -0.9116036 
17.70113 1.145128 5.068304 -0.3718627 0.1058165 -0.9222364 
20.40593 -25.19067 35.37341 -0.5992398 0.5775906 0.5543472 
-37.76924 -51.89765 48.07141 0.09999317 -0.9942427 -0.03852065 
-5.353893 3.80363 11.00059 -0.8681307 -0.4251515 -0.2561165 
19.69014 1.966704 4.342237 -0.2110959 0.1691919 -0.9627115 
-32.01324 7.901755 31.36481 -0.7106875 0.681223 0.1756652 
36.39971 -9.106069 16.87153 0.9392097 -0.2587131 0.2257265 
-25.01504 5.576045 15.53753 -0.2286024 0.4323561 -0.8722438 
-34.67616 -3.384864 34.50366 -0.8133132 0.03833101 0.5805615 
-21.2227 58.61209 25.95903 -0.7345098 0.1882083 0.6519767 
-0.07933331 43.03638 36.28569 0.01667406 -0.3367335 0.9414523 
12.10013 4.336863 6.07695 -0.1016494 -0.2549865 -0.9615864 
-10.08493 7.761048 11.08764 -0.5277505 -0.606989 -0.5941749 
8.320834 8.377867 5.17844 -0.04355876 -0.4875425 -0.8720117 
-12.38713 10.84894 10.33683 -0.5288597 -0.3940497 -0.7516868 
11.42753 10.4966 4.432014 0.02997044 0.04300202 -0.9986252 
-33.08668 -8.347863 35.24009 -0.5878261 -0.3215187 0.7423518 
10.2903 13.79855 4.050861 0.6175586 0.2177197 -0.7557903 
-20.008 -32.63987 31.77265 0.5391842 -0.5089149 -0.671034 
-13.85904 -9.052023 30.4946 0.7190856 -0.6114849 0.3301542 
-15.13833 25.26683 8.416071 -0.9068402 -0.3455285 -0.2413531 
-30.44154 9.850178 23.83201 -0.6474681 0.6780512 -0.3478952 
30.802 -18.93384 29.39067 0.3358664 0.9355069 0.1096393 
36.53209 -8.142923 15.65124 0.9882938 0.003349666 -0.1525236 
5.754882 32.57678 36.12363 0.2982825 0.3533605 0.8866587 
17.56276 37.35535 28.50308 0.5879715 -0.5245147 0.6157702 
-15.01826 -10.77261 31.35899 0.7374951 -0.6614518 -0.136319 
-25.11728 39.04969 5.754688 -0.725428 -0.6882749 -0.005578995 
-25.59311 39.60323 6.837777 -0.7153941 -0.6970786 0.04788058 
-30.63715 39.81725 7.503636 0.1848811 -0.9815463 0.048851 
-29.35883 40.14714 7.820605 0.3446242 -0.9382424 0.03056891 
-34.15102 40.48781 8.802029 -0.2731305 -0.8560623 0.4388135 
34.63769 -40.96316 33.92794 0.9714929 -0.1987049 -0.1292985 
-44.31371 52.06655 8.64668 -0.2010434 0.08492912 0.9758939 
-44.91377 52.0011 8.502367 -0.3706946 0.08776563 0.9245986 
-42.99234 54.71474 7.625734 -0.3066213 0.414505 0.8568365 
-42.672 55.32878 7.427287 -0.2744225 0.4615841 0.843583 
-28.16691 -41.75552 37.26837 -0.2512876 -0.7343211 -0.6305765 
22.50021 -36.12289 22.79483 -0.2271648 -0.3851276 -0.8944679 
18.21715 -15.50739 22.97666 -0.8315917 -0.2553821 0.4931892 
21.98473 18.56481 24.33362 0.8305886 0.402709 0.3846405 
11.27356 36.56615 32.20084 0.3659208 0.2968349 0.8820376 
38.83733 -53.35035 24.86277 0.6579516 0.7397851 0.1407755 
-17.75568 22.99802 22.9899 -0.9932248 0.06165339 0.09850317 
-13.71801 21.89618 32.6561 -0.6743366 0.1359005 0.7258103 
3.672299 1.809114 45.63918 -0.7435504 -0.5133866 -0.4284477 
35.8769 -6.34877 11.38696 0.8865556 -0.05061574 -0.4598441 
-17.68902 -51.35614 49.8286 0.4413502 -0.8945444 0.07070814 
-38.66203 -52.79832 42.59002 0.06631456 -0.9544038 0.2910593 
-64.57081 56.0367 -43.73331 -0.5950594 -0.6523415 -0.4694199 
20.95672 -52.39905 25.18287 -0.8653509 0.4511915 -0.2181611 
33.67498 -60.61628 16.66113 -0.2054274 -0.9315993 0.2998701 
33.25418 -4.437072 24.31989 0.623072 -0.1699513 0.7634771 
-44.6505 -54.83995 36.74862 0.2299058 -0.9684206 0.09646596 
35.30842 -58.79452 16.54383 0.9966994 -0.006620176 0.08090321 
15.32534 -0.007032871 27.9738 -0.5850056 -0.08689523 0.8063607 
29.51352 -4.357955 27.87135 0.3215842 -0.2076688 0.9238275 
-44.74163 -48.65048 34.86563 -0.1256477 0.8852448 -0.4478337 
-30.91909 -12.31104 19.86504 -0.1300726 -0.5561315 -0.820852 
-37.92681 -49.30148 33.44035 -0.8664054 0.3387303 -0.3668846 
-37.13497 -20.92372 39.58949 -0.9307657 0.2080607 0.3006439 
27.12633 -5.112566 28.97846 0.3059625 -0.1113603 0.9455078 
-2.623218 24.37404 37.19031 -0.1821267 -0.06801908 0.98092 
23.77848 -22.73321 10.28054 -0.5006886 -0.519031 -0.6927613 
-28.14717 -18.77396 23.74893 0.3273078 -0.5825723 -0.7439615 
-32.17479 -18.72974 23.2943 -0.1113286 -0.5469666 -0.8297185 
-13.01353 14.17324 9.208375 -0.6289352 -0.27873 -0.7257754 
11.38988 4.462556 57.31601 0.617493 0.7865058 -0.01054229 
-38.13479 -18.34246 26.38253 -0.7744989 -0.6308566 0.04659557 
-40.32317 -14.65347 23.94694 -0.89921 -0.2831996 -0.333497 
-0.3631328 3.091204 23.78928 0.6198828 -0.7769206 0.1101765 
-37.04064 -19.64038 25.96096 -0.493861 -0.05134884 -0.8680234 
-40.42847 -11.42277 24.07812 -0.9467306 0.2810946 0.1571213 
20.08759 -19.98198 27.29969 -0.9307821 0.3602379 -0.0622285 
34.69928 -31.29965 23.02404 0.9992644 -0.03783068 -0.006229697 
-18.39784 -2.976079 15.6298 0.1509679 -0.3984303 -0.9046885 
31.08665 -13.81192 5.603125 0.6561443 -0.204921 -0.7262797 
-38.88929 -8.703914 23.00069 -0.6594787 0.7480049 0.07467929 
27.57958 -19.11029 32.23998 0.0122956 0.8547285 0.51893 
-27.59004 40.29088 4.134193 -0.03877529 -0.9445983 -0.325932 
-21.26013 -7.544609 17.60837 0.0610486 -0.5457749 -0.8357053 
-36.78258 -6.633467 22.01999 -0.8429919 -0.2096804 -0.4953767 
-36.58569 -6.337805 21.60081 -0.7722263 -0.2192458 -0.5963203 
-26.86093 -31.54668 49.93361 0.05095464 0.1195119 0.9915249 
28.63751 -17.94138 28.68048 0.5609556 0.4604133 0.6880039 
30.59512 -9.08935 5.08892 0.4153203 0.0891086 -0.9053 
-1.288794 1.332505 9.27696 0.04576936 -0.6905915 -0.7217955 
-17.89704 -3.802933 16.25505 0.1580403 -0.4728422 -0.8668585 
-16.63658 -48.28648 49.14914 0.8562665 0.2125181 -0.4707892 
31.99866 -34.87894 20.76807 0.3335019 -0.6748167 -0.6583303 
-17.69949 -34.53677 38.13276 0.9005622 -0.237597 -0.3640536 
17.41693 -35.69914 28.788 -0.8938202 -0.4419955 -0.0756662 
19.27952 -41.31829 35.37724 -0.7334579 -0.6739547 -0.08846039 
15.85254 -5.220001 6.415254 -0.6637491 -0.2866782 -0.6908351 
-34.29485 1.122148 20.24738 -0.5615291 0.5206289 -0.643141 
12.92468 -1.870553 7.651008 -0.5254318 -0.2344132 -0.8179065 
10.24692 10.77024 4.134602 0.203098 -0.2678969 -0.9417972 
13.92847 -0.9933245 7.090985 -0.6180931 -0.1417618 -0.7732173 
13.21123 1.673388 7.307971 -0.1823875 -0.5128875 -0.8388569 
-30.18292 10.2777 24.19589 -0.6136985 0.6932985 -0.3777708 
11.79221 -0.8438971 8.451083 -0.7040021 0.01126933 -0.7101082 
-4.681834 1.712994 11.15948 -0.7757351 -0.5747464 -0.2605805 
17.81668 -16.77145 14.19368 -0.8203676 -0.5376768 0.1946814 
14.75697 0.6940753 6.456285 -0.5562511 0.1800715 -0.8112705 
36.25788 -24.40944 31.65664 0.8394207 0.351912 0.4141626 
9.64053 2.122187 7.534078 -0.303088 -0.5546833 -0.7748964 
-5.119577 2.667096 11.22554 -0.9288302 -0.2806838 -0.2418497 
36.52067 -25.41354 31.72157 0.8435068 0.07866941 0.5313255 
36.47605 -25.98801 31.88516 0.8590233 0.04816715 0.5096653 
21.38321 0.6423132 4.075228 -0.003593594 -0.1763465 -0.9843216 
34.34134 3.699492 13.66292 0.6971968 0.6859633 -0.2082575 
11.69843 2.788786 6.758079 -0.09846589 -0.5360327 -0.8384351 
33.55345 -43.78337 36.2513 0.9348015 -0.3432731 0.0911598 
-21.46618 5.111497 14.76246 -0.05443384 -0.05617055 -0.9969358 
-21.08606 5.563999 14.74953 -0.002478972 -0.0125962 -0.9999179 
18.64281 3.00363 4.958905 -0.376943 0.4364259 -0.8169741 
-61.69203 42.96225 -16.72013 -0.4579053 -0.8480606 -0.2666743 
20.42554 2.585578 4.357677 -0.09409663 0.2715597 -0.9578109 
6.586659 4.178141 7.890313 -0.4947418 -0.4733615 -0.7288072 
-14.13878 13.29859 10.96527 -0.8347791 -0.132897 -0.534305 
13.8105 4.309952 5.824967 -0.1515201 -0.3099548 -0.9385999 
9.09599 3.235067 7.03324 -0.2708126 -0.5055341 -0.8192042 
-35.79522 -37.19561 43.26078 -0.9983695 -0.05694366 0.003980977 
20.44932 -51.13469 33.33496 -0.9678763 -0.03730385 -0.2486441 
26.55665 -41.7638 27.88152 -0.6179492 -0.6259208 -0.4757746 
20.24549 -25.96937 36.07571 -0.5842459 0.5854745 0.5620283 
-17.34825 -12.04925 28.721 0.03285314 -0.6423162 -0.7657353 
-11.39174 8.709364 11.28316 -0.6423364 -0.5183758 -0.5645268 
-15.22424 9.856417 12.27562 -0.3032156 -0.1897891 -0.9338309 
21.06676 -40.89668 29.0371 -0.5583062 -0.6808065 -0.4741276 
-13.36548 10.9637 11.38295 -0.7738469 -0.470926 -0.4235438 
13.64386 9.864093 4.386017 0.1563469 0.07113838 -0.9851369 
12.26101 10.94416 4.620975 0.1959457 0.2751579 -0.9412192 
-6.406027 18.44493 0.5159607 -0.4404433 -0.2923754 -0.8488386 
13.92577 -8.550326 9.750708 -0.8079018 -0.3431513 -0.4791049 
10.6543 13.60597 4.267056 0.563689 0.2041988 -0.8003483 
10.19783 16.85694 3.732389 0.1884977 -0.3357312 -0.9229052 
-5.051147 2.488136 32.64532 0.5864635 -0.6569409 0.4738035 
-17.03612 19.67354 16.96301 -0.7568122 0.3304166 -0.5639676 
24.3215 -45.1991 30.47965 -0.6391133 0.663527 -0.3889303 
-15.94373 27.04662 8.44693 -0.9142144 -0.3984488 -0.07383016 
-32.24382 58.89165 10.95068 -0.1480541 0.8798959 0.4515115 
27.68614 -42.24796 27.86887 -0.1673142 -0.6552083 -0.7366877 
16.09872 18.11162 6.889621 0.5518348 0.03829187 -0.8330743 
-23.52248 37.01405 7.677637 -0.9488687 -0.2845643 0.1366471 
7.916215 17.73577 36.16121 0.3323591 0.4142792 0.8472959 
-27.68839 40.57389 7.637833 0.06100846 -0.9480776 0.3121317 
-35.71184 41.31934 9.405196 -0.3223821 -0.9271529 0.1909377 
-38.79452 42.84781 9.906437 -0.6262337 -0.6815541 0.3785688 
36.48085 -30.28637 33.12395 0.9611809 0.1486368 0.2324629 
-43.88057 54.62447 7.56368 -0.06730132 0.4288768 0.9008523 
-43.71823 54.90052 7.436929 -0.1116646 0.3912838 0.9134708 
23.34386 10.70465 8.402077 0.5385617 0.3834622 -0.7502718 
3.536906 42.39832 34.86937 0.01473774 -0.1615031 0.9867622 
18.07298 24.82501 7.138826 0.9176108 -0.1899439 -0.3491588 
-34.63374 59.93068 3.089836 -0.2099124 0.9230337 -0.3224061 
-33.2421 -17.3635 43.84968 -0.5469297 0.5350803 0.6438611 
19.02141 -1.961268 29.52862 -0.5296048 -0.03495878 0.8475236 
-22.1673 -43.22393 40.72256 0.6152197 -0.4912108 -0.6166173 
-36.8363 -52.90888 42.26995 -0.05439394 -0.9412091 0.3334181 
-41.90277 -52.79739 43.48347 0.3991723 -0.8067906 0.4356037 
-27.95483 59.66477 2.568079 -0.09109831 0.9474952 -0.3065189 
-27.42488 59.82593 2.831425 -0.2849796 0.9383177 -0.1958232 
16.958 35.20638 30.78921 0.6704242 0.6524828 0.3532667 
25.33352 -54.06305 37.69717 0.01228843 -0.9848779 0.1728131 
-23.44103 -36.20121 50.59425 0.1214713 0.01664567 0.9924558 
22.39419 -0.1122622 4.024525 -0.05617036 0.3032668 -0.9512485 
29.34245 -3.065937 27.99588 0.1594309 -0.01058778 0.9871526 
-26.46006 -27.67111 48.88737 -0.02071568 0.1670905 0.9857243 
8.497673 -1.595317 45.12394 0.06737508 -0.8885957 -0.4537173 
-21.1738 -45.85331 41.77663 0.820622 -0.301296 -0.4855936 
-33.14558 -39.74913 38.10056 -0.8007563 -0.5859529 -0.1242916 
-27.36163 -19.39237 24.28744 0.3104739 -0.07210848 -0.9478434 
-34.48196 -10.62002 20.00691 -0.0592135 0.2295697 -0.9714896 
19.44814 -20.83386 25.11819 -0.9161003 0.3699958 0.1544803 
30.33739 -56.76589 17.65844 -0.8078964 0.1978737 -0.5551124 
12.13541 5.61862 5.729481 -0.0829933 -0.3081242 -0.9477186 
-32.85007 -51.40575 32.45016 0.5873611 0.04676141 -0.807973 
-25.05322 -28.92207 49.08336 0.3660857 0.33227 0.8692396 
-25.01484 -43.32781 53.92368 -0.1654921 0.5529039 0.8166453 
30.99709 -55.56444 17.31868 -0.6924809 0.3308754 -0.6410863 
-27.63215 -28.91186 49.22726 -0.1469932 0.4513173 0.8801737 
29.81072 -56.63127 29.15869 -0.04848444 -0.9611288 0.2718115 
-44.86627 -48.47644 35.3842 -0.3344673 0.9309748 -0.1463449 
-38.21976 -49.46711 33.93686 -0.8358859 0.3646786 -0.4102477 
-34.35335 -25.27247 26.60936 -0.2899342 -0.6832422 -0.6701635 
-32.5615 -24.13765 25.39286 -0.0984129 -0.7215702 -0.6853104 
-22.29066 -28.81054 47.9503 0.5501087 0.1843039 0.8145012 
-35.53479 -23.76274 26.21045 -0.726416 -0.215018 -0.6527534 
-36.10355 -22.58509 26.41414 -0.6663062 -0.3886901 -0.6363618 
-24.32732 -29.64728 49.01009 0.3663584 0.4380438 0.8209136 
-31.25294 -45.68262 52.18887 -0.4196804 0.202674 0.8847549 
-22.09096 -30.82992 48.5071 0.6192448 0.1839099 0.7633564 
23.81361 -24.12143 11.18885 -0.5207225 -0.5033363 -0.689566 
32.33934 -25.70402 10.05945 0.5375003 -0.7424256 -0.3998715 
-29.01157 -19.22865 23.73765 0.1428197 -0.3753284 -0.9158225 
33.25219 -21.17259 8.26231 0.7040322 0.02395244 -0.7097638 
3.652273 3.108718 22.20861 -0.6829587 -0.6337792 0.3631679 
29.96575 -55.67052 18.52563 -0.8837944 0.03417781 -0.4666252 
19.29286 -18.07845 11.16201 -0.690643 -0.6644688 -0.2854692 
21.07825 -19.6475 9.756047 -0.5079653 -0.4828855 -0.7132972 
11.20954 19.55395 2.933735 0.4482685 -0.4412426 -0.7774067 
-5.475039 46.52444 36.16051 -0.2673988 -0.1624236 0.9497982 
-23.00088 68.06308 10.70257 -0.7197267 0.3812757 -0.5801916 
-40.64777 -13.29916 25.11329 -0.9942344 0.04688426 0.0964338 
-40.62173 -13.11461 25.18387 -0.9789553 0.1959454 0.05702434 
-18.47846 -2.102241 15.31626 0.1664837 -0.2641574 -0.950002 
16.33169 -4.463202 5.774629 -0.5706519 -0.2054405 -0.7950788 
30.45199 -16.89525 7.053144 0.4193697 -0.523312 -0.7418044 
30.89739 -16.22991 6.854143 0.5765061 -0.5374384 -0.6154684 
26.76228 -55.62469 32.0215 -0.00858555 -0.9475597 0.3194648 
33.07409 -14.44855 7.308879 0.7016217 -0.4219956 -0.5741484 
-22.39552 -31.50872 48.84376 0.4792941 0.05803625 0.875733 
16.04819 -11.39005 9.427148 -0.7495674 -0.4030036 -0.525106 
11.71795 -0.5240145 56.38541 0.6802576 -0.7213215 -0.1301733 
-37.02008 -7.321665 22.33522 -0.6108724 0.5464067 -0.5729532 
30.15114 -7.843722 5.144686 0.5250282 0.222945 -0.8213652 
21.09338 -55.71235 32.96687 -0.5265867 -0.7919108 0.3091666 
-36.06804 -28.9825 41.27593 -0.9583579 -0.2806316 0.05287682 
-31.81192 -43.60979 38.05003 -0.1335089 0.7733328 -0.6197832 
28.07177 -4.306822 4.265024 0.4223913 0.2796831 -0.8621849 
24.0364 -20.19043 33.349 -0.6466843 0.6509092 0.3976386 
11.0352 -1.03028 9.302114 -0.781301 -0.01043822 -0.6240675 
-41.09015 55.79813 8.44866 -0.4531569 0.4343981 0.7784261 
-1.199611 7.006042 32.78645 -0.1046279 -0.5446519 0.8321102 
-21.37363 -33.19257 48.83595 0.3939873 0.4782431 0.7848938 
10.17634 0.7575212 8.577977 -0.189524 -0.751484 -0.6319427 
-26.37324 -32.60708 50.28712 0.001218379 0.3024271 0.9531718 
1.407979 1.905531 10.04029 0.7112631 -0.5275507 -0.4645373 
-11.96982 37.27399 28.80063 -0.6767556 -0.1604625 0.7185083 
9.762201 1.10082 8.340667 -0.2645593 -0.6709731 -0.6926788 
9.485201 0.9336231 8.652283 -0.3499992 -0.7203143 -0.5988719 
13.43181 1.557362 7.256182 -0.5226005 -0.5956196 -0.6100214 
3.036972 19.43359 36.74902 0.1284274 -0.3417314 0.9309817 
26.74742 -0.01102781 4.714958 0.3906406 0.3312331 -0.8588859 
-18.44828 3.852677 14.51519 0.2021187 -0.2473658 -0.9476065 
-4.630229 44.40736 36.49763 -0.1377885 -0.262075 0.9551599 
-14.40601 5.779245 13.56044 -0.1980947 -0.3434725 -0.9180337 
17.71358 2.887732 5.472569 -0.4757192 0.332686 -0.8142548 
-27.94187 5.925479 17.57765 -0.5739586 0.529304 -0.6248268 
-16.57792 5.511119 14.00717 -0.2356893 -0.2109036 -0.9486676 
24.1768 1.934564 4.687607 0.08130106 -0.03351119 -0.9961258 
17.34773 3.39526 5.693255 -0.3056092 -0.06553014 -0.9498994 
19.92538 3.455653 4.715721 -0.2146468 0.3829928 -0.8984668 
-23.79089 -4.131941 39.40947 -0.2073533 -0.3832377 0.9000744 
26.22905 -10.47241 28.09502 0.2965355 -0.1746879 0.9389093 
23.0519 -54.00313 20.5181 -0.821008 0.4536195 -0.3466641 
17.54994 3.548764 5.593057 -0.3529317 -0.2837166 -0.8915959 
-15.35534 6.307058 13.57102 -0.162749 -0.3179863 -0.9340227 
-23.03161 6.897614 15.3415 -0.4560124 0.3700536 -0.8093908 
-14.7968 6.410728 13.40822 -0.222442 -0.3025489 -0.9268143 
-2.515169 0.06578708 14.19589 -0.4265675 -0.8897136 0.1626338 
-15.10025 7.051137 13.25698 -0.2288258 -0.3524716 -0.9074157 
-12.12292 6.880709 12.44885 -0.2376232 -0.348529 -0.9066769 
-11.16846 6.801328 12.19718 -0.3224897 -0.4317772 -0.8423591 
16.41277 4.890985 5.606946 -0.07689922 -0.2944465 -0.9525688 
-17.44281 7.629443 13.78952 -0.3291861 -0.1538727 -0.9316434 
-16.22394 8.031784 13.21491 -0.3092106 -0.3258176 -0.8934377 
-15.04204 7.787194 12.93341 -0.2534965 -0.3816511 -0.8888654 
15.24731 7.990165 4.843798 0.1833086 -0.1764948 -0.9670824 
36.5626 -28.44732 32.55409 0.9423498 -0.03644007 0.3326382 
-14.67611 11.19161 12.00963 -0.1848713 -0.006247476 -0.9827429 
-15.83096 9.312903 12.64742 -0.400551 -0.2113282 -0.8915717 
-15.14839 11.39838 12.11123 -0.2870635 0.07365863 -0.955075 
-13.60093 10.65131 11.74775 -0.4658274 -0.07646158 -0.8815655 
-26.39819 4.812068 15.72875 -0.4143647 0.3738218 -0.8297946 
-25.99596 -35.47878 50.8996 -0.1675819 -0.131899 0.9769951 
-13.84642 16.15917 10.86963 -0.7948569 0.0983704 -0.5987702 
-14.15735 14.62605 10.95744 -0.8871608 0.1686383 -0.4295419 
11.34181 14.65693 4.616655 0.2090808 -0.06133769 -0.9759732 
21.81492 25.33323 11.72105 0.8132194 -0.1053475 -0.5723421 
12.53016 17.60272 4.555342 0.4985964 -0.2386301 -0.8333408 
13.08224 19.93221 3.972702 0.5745524 -0.4025852 -0.7126116 
-15.6513 26.53276 8.071295 -0.8894352 -0.4386238 -0.1285079 
-18.85652 28.90993 8.586332 -0.693759 -0.7017626 0.1619513 
-16.60036 28.75929 17.75034 -0.9130371 0.3299622 0.2397679 
-31.6158 40.2185 8.971928 -0.2871624 -0.9399903 0.1842708 
-1.590672 22.84736 37.10456 -0.1167849 -0.1903849 0.9747378 
-32.54099 40.5522 9.148534 -0.0863403 -0.9337124 0.3474566 
-11.61151 -1.209141 37.73551 0.4902173 -0.245752 0.8362373 
-32.61351 40.91271 9.919312 -0.1706067 -0.888479 0.4260254 
-37.74383 -5.101871 24.5492 -0.9352826 0.3510628 0.04474472 
-35.16793 41.02365 9.112105 -0.3784317 -0.8650778 0.3292867 
-22.39524 -39.48776 50.85324 0.2738695 0.316585 0.9081686 
-23.72173 -39.63884 51.24195 0.1811843 0.2939187 0.9385012 
-23.81703 -39.43422 51.19688 0.1748149 0.2879364 0.9415583 
-22.61597 -39.81022 51.00915 0.1951309 0.2882617 0.9374592 
-39.91349 57.6579 7.049092 -0.3621373 0.824447 0.4349052 
-23.21305 -17.68177 43.00092 0.6103634 0.6091765 0.5063217 
-35.929 59.98967 4.569759 -0.04694666 0.998648 0.02231939 
-24.06951 -14.46927 23.82836 0.6004774 -0.4640265 -0.651234 
-23.42243 -40.93631 51.51654 0.2222089 0.3069878 0.9254091 
-6.43291 24.09967 35.88244 -0.4275991 0.05712213 0.9021619 
21.72446 -47.55025 30.83033 -0.689729 0.4754691 -0.5460801 
-18.86222 -27.48994 29.32233 0.8658602 -0.137343 -0.4810642 
-18.94428 -34.96735 45.91494 0.8252636 -0.08049479 0.5589818 
37.40316 -57.52487 28.24943 0.2504318 -0.9006883 0.3550263 
34.23607 -42.02496 34.11921 0.8446333 -0.5350139 0.01883294 
-19.24792 29.40538 5.645248 -0.4485506 -0.8107771 -0.3760873 
-34.66243 -55.51898 35.05052 0.02601871 -0.9957772 -0.0880335 
31.35594 -2.54173 26.73595 0.6697989 0.1324166 0.7306405 
-26.19291 -18.92333 24.72414 0.5697578 -0.203042 -0.7963355 
34.3408 -60.23023 17.82653 0.143011 -0.9146166 0.378185 
-47.33727 -54.50424 37.16988 -0.3959878 -0.7781403 0.4875366 
23.24912 -58.08467 20.08699 -0.4493528 -0.8930097 0.02479321 
37.09226 -25.41016 28.68276 0.9836262 -0.02499222 -0.1784791 
26.7563 -55.49795 18.53024 0.9179613 0.3359216 -0.2109617 
-40.00681 -50.80747 35.17355 -0.1027543 0.1979675 -0.9748085 
-70.27065 47.34702 -34.40836 -0.572245 0.6573167 -0.4903781 
24.18026 -53.84035 18.89422 -0.246587 0.8561319 -0.4541279 
25.15808 -53.97526 18.44561 0.1072393 0.8353688 -0.5391286 
-43.55384 -49.32736 34.43732 0.3994516 0.2679962 -0.8767081 
-36.29905 -48.05546 33.6361 -0.5915667 0.3734748 -0.7145386 
-27.19684 -27.29179 25.84866 -0.07365066 -0.3913944 -0.9172711 
-31.16539 -27.35216 27.54564 0.1998014 -0.2525662 -0.9467261 
5.645121 41.18412 34.66128 0.1111853 -0.05995585 0.9919896 
7.953457 40.80685 33.86623 0.1972022 -0.1045422 0.974773 
-31.45786 -26.48771 27.20422 0.09392285 -0.4597744 -0.8830546 
2.861643 40.5478 34.78983 0.1357138 -0.004901066 0.9907356 
-27.46662 -45.50246 54.15718 -0.450574 0.330737 0.8292145 
27.38235 -25.89337 10.53835 -0.5269287 -0.7035719 -0.4767941 
24.34639 -25.07424 11.51587 -0.464783 -0.5329893 -0.7070352 
32.37315 -23.72998 8.199795 0.5633225 -0.4574779 -0.688027 
-37.58899 -18.53541 25.66802 -0.5047045 -0.8229526 -0.2608112 
22.48062 -22.43916 11.1085 -0.604833 -0.5066829 -0.6143698 
-24.44528 -30.45696 49.24392 0.1470516 0.1155905 0.982352 
33.85483 -23.5464 10.21319 0.9150267 -0.3202575 -0.2452777 
-40.06354 -16.35836 25.84756 -0.8993074 -0.4367464 0.02233617 
-27.43418 -17.58564 23.36326 0.3105315 -0.2561969 -0.9153867 
-29.53732 -52.98893 36.55429 0.8068034 0.1751955 -0.5642472 
-26.97451 49.81712 17.44819 -0.03724192 0.07083464 0.9967926 
31.84659 -18.98102 7.301337 0.6076081 0.3644639 -0.7056756 
32.52315 -19.21443 7.823352 0.7152904 0.2052377 -0.6680096 
18.8609 -18.17717 11.97663 -0.727038 -0.4354381 -0.5308579 
-22.76504 -40.6106 37.18014 0.2771106 -0.7383754 -0.6148259 
7.606619 -1.250073 19.78707 -0.2025323 -0.9767965 0.06963828 
-25.9178 -14.39677 22.36116 0.4322388 -0.546528 -0.7172703 
31.81167 -17.87993 7.880365 0.6042157 0.3642452 -0.7086949 
-4.713188 1.944825 10.87973 -0.8370793 -0.4163734 -0.3548686 
-4.720732 47.76492 36.68688 0.04396653 -0.2412773 0.9694599 
31.99425 -12.776 6.029181 0.4198471 0.0262121 -0.9072159 
12.42458 -0.952513 7.900667 -0.5963853 0.002086282 -0.8026956 
14.07685 -8.776045 9.665148 -0.7613893 -0.4146121 -0.498381 
31.88233 -10.35971 5.623364 0.3653652 -0.09167725 -0.9263386 
33.17233 -11.20588 6.830628 0.7934362 -0.3062524 -0.5259923 
-18.99184 -24.81542 43.35626 0.8280178 0.2411276 0.5062054 
12.1718 -6.085861 10.23358 -0.8518969 -0.3691117 -0.3715207 
31.04973 -7.299031 5.576729 0.3756527 0.08695985 -0.9226718 
-36.62197 -2.295012 21.70259 -0.8873101 0.1766244 -0.4260111 
4.977091 4.374403 30.71378 -0.07286007 -0.9972724 -0.01183884 
27.31564 -53.41468 41.14564 -0.03191517 -0.9782151 0.2051282 
-24.86008 -38.9334 34.79365 0.3102615 -0.5900851 -0.7453441 
28.36714 -3.859729 4.576967 0.4930338 0.2215638 -0.8413252 
-14.73239 -0.4390818 15.79251 0.3030359 -0.3521494 -0.8855283 
28.15753 -4.52844 4.243732 0.4229696 0.2162447 -0.8799633 
-14.84886 1.149839 15.13957 0.1743573 -0.2979674 -0.9385176 
27.36093 -0.85307 4.700893 0.4022401 0.2736215 -0.8736899 
36.63065 -57.19695 29.55874 0.1885921 -0.9165668 0.3526148 
-14.11919 2.363969 14.68148 0.009433672 -0.3856923 -0.9225791 
8.864822 1.015192 8.924899 -0.3648218 -0.6759635 -0.6402947 
11.27783 1.212574 7.851597 -0.1407749 -0.6613463 -0.7367524 
26.91978 -0.2996786 4.683786 0.3529403 0.244136 -0.9032333 
37.85456 -51.14132 27.54293 0.734161 0.6206387 -0.2753461 
25.49843 -1.200261 4.268251 0.1564736 0.2585085 -0.9532515 
7.647255 1.610533 9.179944 -0.4485046 -0.6073728 -0.6557003 
-22.64754 34.86284 8.199053 -0.8666409 -0.47067 0.1655394 
6.028775 2.690582 9.283032 -0.4828768 -0.5337321 -0.6942337 
-14.27601 4.603395 14.00067 -0.05116925 -0.260729 -0.9640548 
-9.677712 4.626625 12.99182 -0.3271663 -0.6290234 -0.7051895 
-35.50043 -34.81681 37.71397 -0.7034301 -0.6373538 -0.3145896 
-21.80222 6.789412 14.94984 -0.1735027 0.2953885 -0.9394901 
-19.05865 7.955109 14.50018 -0.4450253 -0.03976579 -0.8946342 
-10.641 7.029768 11.87696 -0.3492648 -0.3893947 -0.8522831 
17.48668 6.193844 5.636805 0.1768496 -0.0115736 -0.9841695 
27.66222 -47.55029 26.98485 -0.1625344 0.760421 -0.6287631 
13.15366 11.3569 4.670736 -0.1298803 0.3154773 -0.9400023 
-12.42476 49.85924 32.94297 -0.6969398 -0.1929474 0.690685 
-17.46041 10.43827 13.41267 -0.6006202 -0.02648504 -0.7990956 
-16.1613 26.9511 10.52131 -0.9398523 -0.3213332 -0.1158548 
13.76605 11.75698 4.748386 0.01200551 0.283379 -0.9589329 
13.39108 11.93331 4.823943 -0.09409663 0.2715597 -0.9578109 
19.47862 -0.1240313 30.08498 -0.1109835 -0.2662198 0.9575019 
-13.21689 19.10447 9.764081 -0.8522522 -0.1976273 -0.4843661 
11.36048 17.99928 3.755512 0.4167596 -0.3671205 -0.8315848 
-12.70634 19.29594 8.905822 -0.792527 -0.2189017 -0.569195 
-12.12095 28.06727 31.23389 -0.7815805 0.1228655 0.6115841 
12.35329 20.57701 2.841749 0.434992 -0.7533376 -0.4932174 
-16.18531 27.54222 8.814572 -0.9462546 -0.3127161 -0.08252277 
-17.29208 28.69307 9.37429 0.2466467 -0.9639972 -0.0993707 
-23.36594 -37.92522 50.50684 0.04592879 0.2101502 0.9765894 
-0.8553052 23.33665 37.2691 -0.1093563 -0.2553664 0.96064 
-28.90829 -48.71418 54.14828 -0.5446441 0.08960333 0.833867 
36.77232 -54.18913 23.56101 -0.4874142 0.4827395 -0.7275918 
-39.33795 -44.40543 46.43779 -0.3238615 0.6840734 0.6535729 
-31.53397 40.27329 9.29189 -0.1509971 -0.9644718 0.2167834 
33.90836 -17.59556 19.91154 0.9624901 0.2712466 -0.006164826 
28.55992 -35.80367 19.55784 0.4449744 -0.7232291 -0.5281456 
-23.31091 10.60896 17.7487 -0.3387725 0.5412993 -0.7695631 
4.366744 42.29223 34.84142 0.003450677 -0.1164523 0.99319 
-22.25402 68.43896 14.25063 -0.7917681 0.5623138 -0.2385513 
20.44082 -42.5743 40.364 -0.9758676 0.06903157 0.2071625 
-33.08724 -22.40229 46.13812 -0.4178748 0.2709153 0.8671706 
32.00064 -26.30604 10.70077 0.4133748 -0.8580185 -0.3048387 
-36.6979 59.72037 6.008348 -0.2694755 0.9081575 0.3203631 
-31.31089 60.1078 4.504686 0.1061908 0.9916556 -0.07309514 
-29.45488 59.85937 3.750639 -0.09526509 0.9832854 -0.1551626 
-22.28082 -48.41822 42.36197 0.7001531 -0.3144715 -0.6410104 
-38.06675 -55.50866 36.11368 -0.05933474 -0.9738659 0.2192366 
-17.0029 24.27584 20.23416 -0.9841766 0.1339488 -0.1159975 
29.80184 -56.40496 18.71313 -0.9134351 0.1319519 -0.3850001 
-46.50593 -50.66584 37.39874 -0.7168874 0.5249236 0.4588329 
-31.70502 -50.46957 33.6901 0.7677922 0.0423791 -0.6392956 
35.73604 0.3411477 14.63515 0.9831713 0.1783188 -0.03969777 
35.61951 0.6847446 14.24109 0.9652573 0.2255783 -0.1318817 
32.66024 -54.95163 16.89149 -0.1072018 0.6255152 -0.7728119 
-34.93853 -13.25009 20.19765 0.281827 -0.3916226 -0.8759023 
-34.88279 2.424534 31.59171 -0.7413252 0.5283854 0.4138175 
