ply
format ascii 1.0
comment 
element vertex 880
property float x
property float y
property float z
property float nx
property float ny
property float nz
element face 0
property list uchar int vertex_indices
end_header
-22.5362 -7.48516 3.75982 0.726571 -0.455141 -0.514724 
-20.8741 -3.63604 0.518565 0.57131 -0.480838 -0.665132 
16.9235 -37.3317 13.4066 -0.420164 -0.612809 -0.669274 
-25.0945 -34.2696 7.22964 0.740667 -0.433843 -0.513023 
20.883 -44.9112 10.5884 -0.474261 0.838839 0.267255 
-24.2697 -45.5188 18.9524 0.743692 0.668346 0.0153482 
32.8231 -1.65403 1.65391 0.713781 0.223349 -0.663801 
13.1414 -0.226914 0.933485 -0.443386 -0.433641 -0.784452 
26.937 47.4986 12.557 0.494348 -0.750554 0.438508 
30.192 0.245724 0.209443 0.794286 0.230699 -0.562039 
-25.381 46.3723 22.6866 -0.821039 -0.283063 0.495751 
-22.8776 -52.0728 23.2273 0.692854 0.0181962 0.720848 
-23.4404 41.4434 22.5897 -0.37213 -0.927039 0.0460232 
33.9293 -8.95244 5.59973 0.940731 -0.316269 0.12247 
-15.2405 5.18873 1.5744 0.396072 -0.0142846 -0.918108 
18.4512 38.495 21.6494 0.585637 -0.729191 0.353992 
-5.6764 3.27954 33.9289 -0.943051 0.249915 0.219539 
12.6361 -6.8138 12.4182 -0.907492 -0.418536 -0.0358745 
-38.7438 -4.69342 12.705 -0.832787 -0.258025 0.489784 
-15.9291 -6.18432 12.6957 0.652718 -0.659294 0.373216 
-29.7216 63.7661 11.5976 -0.979461 0.129689 -0.154392 
-25.1425 41.9682 11.11 -0.416891 -0.908743 -0.0197267 
-13.5899 7.80397 1.6102 0.348673 -0.22425 -0.910022 
20.8141 39.3034 22.449 -0.001166 -0.975939 0.218041 
-14.7117 6.90381 1.40716 0.367451 -0.26629 -0.891106 
-6.15014 8.4531 1.42837 -0.799533 -0.423093 -0.42631 
6.755 8.20765 1.34168 -0.233813 -0.451033 -0.861337 
26.8789 8.1593 1.60879 0.543015 0.590381 -0.597147 
0.242785 -2.84555 33.526 0.348548 -0.669278 -0.656187 
-38.4581 -6.88565 12.8125 -0.901048 -0.334759 0.275771 
-30.0721 -36.6111 23.1756 0.146665 0.0692258 0.986761 
-7.45422 9.1733 1.55404 -0.0821545 -0.586612 -0.80569 
-8.00255 8.78905 1.8303 0.0295461 -0.67956 -0.733025 
-6.43958 9.00912 1.3024 -0.610794 -0.49974 -0.614159 
-18.3577 -3.62228 4.75585 0.600716 -0.577026 -0.553336 
3.10986 9.50364 1.66137 -0.112999 -0.585538 -0.80273 
22.8836 70.4942 22.7177 0.818412 0.343511 0.460654 
13.7239 7.03335 0.513675 -0.486245 0.321523 -0.81252 
19.9702 37.1978 12.7688 0.797233 -0.601122 0.0554226 
-15.5402 1.06317 22.5406 0.21559 -0.268444 0.93886 
-25.8661 13.355 2.8914 -0.265387 0.684922 -0.678566 
23.3958 41.0488 12.0364 0.692906 -0.707936 -0.136777 
-12.0051 76.7893 31.6173 -0.523576 0.36472 0.769965 
30.0886 -6.33258 17.3606 0.488421 -0.448953 0.748255 
-23.9611 12.976 1.39266 -0.141827 0.604629 -0.783778 
18.8126 12.7072 1.11585 0.0688798 0.521519 -0.850455 
-15.6808 24.0934 26.8648 -0.676 -0.186323 0.712957 
10.3951 38.2871 30.3983 0.456538 -0.677281 0.576943 
-7.63781 10.4768 0.901539 -0.243934 -0.44999 -0.859072 
-15.8927 18.91 1.35378 -0.708733 0.286373 -0.644739 
32.0239 -8.91765 12.6724 0.523273 -0.533369 0.664608 
13.842 20.0431 1.52034 0.253507 0.400511 -0.880525 
-23.7454 -35.0799 9.01119 0.704753 -0.432801 -0.562144 
-15.3184 81.449 -21.4813 -0.705318 -0.708145 0.0325097 
-15.8249 68.8948 33.6217 -0.491343 0.387561 0.779986 
-16.6579 31.3089 1.50669 -0.823106 -0.313189 -0.473719 
25.6267 44.3763 7.68524 0.617417 -0.780894 0.0948749 
-37.521 -24.0557 21.6546 -0.421447 0.00652395 0.906829 
-32.5091 -43.6155 7.88294 0.506769 0.597685 -0.621255 
15.8179 23.6802 22.4558 0.886812 -0.320698 0.332743 
-12.6418 1.39286 7.47971 0.736655 -0.519119 -0.433423 
-12.5914 38.7975 30.2115 -0.374766 -0.419042 0.827015 
-32.4084 13.5444 7.69938 -0.486849 0.821852 -0.295867 
17.5387 -11.3247 3.56516 -0.751727 -0.657582 -0.0499249 
-33.1599 45.7119 1.43749 -0.311307 -0.942008 0.125332 
-33.0673 45.7197 1.62082 -0.09875 -0.98631 0.132063 
-30.1411 45.9899 1.49211 0.186818 -0.972214 0.141066 
-25.0427 17.7678 21.0383 -0.714803 0.401148 0.572833 
-27.6129 45.791 1.60797 -0.578289 -0.768411 -0.274093 
15.4841 -18.637 13.426 -0.696111 0.664253 -0.272391 
-44.8083 54.6309 1.10361 -0.859513 -0.198809 0.470864 
4.23948 41.8173 33.6892 0.477938 -0.199266 0.855493 
37.4952 62.9487 1.69594 0.156859 0.986471 0.0476388 
32.6721 -18.7716 12.5216 0.998809 0.0365291 0.0323543 
33.4872 64.2165 1.38349 0.11094 0.967858 -0.225706 
-0.52039 89.051 16.2797 0.184365 0.968238 0.168894 
-37.4379 65.4544 1.57561 -0.413863 0.844905 0.338899 
25.6435 66.8167 1.39867 0.441189 0.823869 -0.355798 
3.60211 77.4304 34.0062 0.124734 0.261285 0.957169 
-41.7534 -19.871 12.7082 -0.996907 0.0738847 0.0267698 
-28.0376 69.0841 1.88422 -0.88406 -0.240023 -0.401032 
33.7476 -3.93892 3.07838 0.928068 0.0761149 -0.36455 
-23.0059 38.8173 11.7964 -0.804061 -0.559944 0.199871 
19.4285 14.9737 21.9813 0.804939 0.119196 0.581263 
-15.5972 85.2856 12.5224 -0.651261 0.758164 -0.0323521 
22.2209 72.2612 1.33926 0.263659 0.875347 0.405281 
14.6025 15.9486 0.280541 0.362127 -0.0270629 -0.931736 
16.7226 60.7066 33.7599 0.660142 0.0768957 0.747194 
-29.9934 60.438 12.5796 -0.835148 0.178425 0.520281 
12.6619 83.0439 1.68291 0.745562 0.661268 -0.0828402 
-11.5321 86.0904 1.38115 -0.338135 0.924611 0.175381 
16.954 60.5062 33.5746 0.660629 0.0708333 0.747364 
9.79834 86.2059 2.05026 0.662255 0.724004 -0.192965 
26.9555 -30.1783 6.17822 0.610159 -0.354972 -0.708308 
30.0172 -7.95309 16.2303 0.57142 -0.353271 0.740729 
-5.53604 89.6537 1.48721 -0.046261 0.997301 -0.0570193 
-2.59311 89.979 1.55789 -0.122692 0.991663 -0.0393964 
-0.567336 89.998 1.6543 0.066016 0.996733 -0.0465358 
22.212 70.9476 23.197 0.624491 0.431315 0.651136 
-33.0952 -52.5359 1.79488 0.841954 -0.326472 -0.429568 
-54.887 -51.6064 2.21129 0.385365 0.160687 -0.908666 
11.11 89.2864 -26.7068 -0.689388 0.47239 -0.549174 
-20.7224 57.8596 32.5951 -0.375131 -0.302231 0.876318 
-32.9917 -24.5384 22.7292 0.0144011 0.12961 0.991461 
-23.1575 38.8609 3.68791 -0.820171 -0.559007 -0.121779 
31.1167 -48.63 1.52421 -0.441616 0.671589 -0.594931 
25.0863 -47.6668 1.92111 -0.00519307 0.998107 -0.0612782 
-39.7116 -46.742 1.89603 -0.434019 0.866525 -0.246498 
-44.0481 -46.8204 1.73618 0.517082 0.655195 -0.550768 
-32.7507 -47.5774 4.29168 0.964949 0.0206862 -0.261619 
-37.3538 -25.5998 2.32694 -0.354374 -0.369849 -0.858854 
25.5014 10.0455 22.3659 0.331403 0.586827 0.738787 
-34.7651 -46.2438 0.96544 0.585083 0.707044 -0.397197 
-7.36373 78.2685 -26.9082 0.139704 0.746591 -0.65045 
19.8321 62.2594 30.3503 0.649923 0.209403 0.730582 
32.2888 -28.2888 11.9045 0.836911 -0.546413 -0.0318165 
-23.3645 -26.1551 18.558 0.768669 -0.0527657 0.637467 
8.01981 0.371735 14.6715 -0.917229 -0.284558 -0.27878 
-28.5732 -25.1909 1.59045 0.171032 -0.451699 -0.875623 
-49.3604 -48.5655 11.6613 -0.809707 0.243067 0.534128 
12.9508 -28.8808 12.4985 -0.896049 -0.346235 -0.277879 
-36.2401 -24.9849 1.9928 -0.0650914 -0.217381 -0.973914 
31.7072 -29.9264 12.5059 0.830804 -0.538621 -0.140189 
-5.61982 4.71082 12.1843 0.671704 -0.735815 -0.0859665 
-26.6467 -24.4772 1.94745 0.0679074 -0.366167 -0.928068 
7.39286 59.8964 -25.1 0.606319 -0.602942 0.518496 
-37.1284 -23.6935 1.8871 -0.506091 -0.330476 -0.796654 
-24.4992 10.4319 0.0492858 -0.104048 0.60817 -0.786958 
50.4019 49.8929 -14.7358 0.447163 -0.846361 -0.289341 
-39.864 -19.6354 2.24968 -0.349169 -0.38331 -0.855076 
28.2387 -30.8541 7.8753 0.34957 -0.570694 -0.74304 
-6.77585 41.4274 33.8417 0.0680417 -0.374896 0.924566 
29.3001 -20.4495 2.31714 0.106549 -0.909123 -0.402671 
23.0091 -18.5654 1.98334 -0.557844 -0.344408 -0.755111 
7.90269 3.13957 5.98051 -0.712657 -0.463476 -0.526602 
33.3428 -17.9672 2.00278 0.815954 -0.492088 -0.303428 
-34.8095 -21.2516 22.7438 -0.0186969 0.115481 0.993134 
17.4854 -17.476 7.8196 -0.860991 -0.0893615 -0.500708 
2.224 15.8397 30.0075 0.0804479 -0.509503 0.8567 
-28.4732 -14.5946 1.55267 0.546843 -0.32554 -0.771354 
34.0954 -15.0471 2.14707 0.954386 -0.0787788 -0.287995 
-27.8201 -16.7092 1.95553 0.558346 0.237958 -0.794749 
18.2213 49.9936 30.5958 0.919499 -0.140925 0.366962 
4.71629 16.159 -1.55691 0.238715 -0.136968 -0.961382 
-18.7707 57.4519 33.832 -0.759786 -0.242818 0.603129 
-27.481 52.3594 22.3311 -0.847563 -0.242815 0.471887 
-31.6496 -28.2649 23.025 0.0885063 -0.0360581 0.995423 
-19.8506 77.0364 4.22087 -0.790452 0.174476 -0.587149 
-27.9025 -12.7284 1.81207 0.627779 0.0208796 -0.778112 
18.7105 -12.3609 2.21212 -0.78739 -0.554788 -0.26875 
15.0393 0.0716144 -0.238765 -0.360312 0.0484784 -0.931571 
-26.9141 -10.7448 1.86933 0.680355 -0.272461 -0.680355 
14.0269 -28.6243 22.9506 -0.91296 -0.0716843 0.401703 
16.0249 -35.8723 13.0363 -0.675051 -0.391166 -0.625536 
-39.585 -2.7883 12.789 -0.986792 0.0595579 0.150646 
33.4027 -2.80926 2.07556 0.865355 -0.0175501 -0.500853 
-17.6933 -0.830527 2.57607 0.626932 -0.778406 0.0322583 
-22.8903 -37.3998 12.8234 0.904833 -0.265437 -0.332896 
30.923 -29.0952 9.3414 0.673301 -0.326105 -0.663567 
-16.567 0.452878 2.29205 0.897713 -0.435876 0.0642199 
-21.4566 59.7829 32.3231 -0.634479 0.0704976 0.769719 
-1.62688 7.00283 -0.335607 0.107658 -0.641527 -0.759509 
-38.129 2.80473 2.09335 -0.79602 0.437569 -0.418193 
-2.23024 5.26948 2.37688 0.0107459 -0.970715 -0.239992 
-14.7338 3.39794 1.99809 0.731263 -0.30697 -0.609118 
26.8786 -45.1552 24.4525 0.773707 0.44142 0.454451 
-36.3751 -47.8534 21.8654 -0.731682 -0.0266832 0.681124 
-2.64294 5.29811 2.45881 -0.127097 -0.966705 -0.222098 
29.094 6.10939 1.93492 0.424506 0.318768 -0.847456 
0.343724 6.59261 2.1412 0.702206 -0.693067 -0.162985 
28.7651 6.94805 2.13578 0.379032 0.372792 -0.846972 
-26.3347 -49.5362 13.4895 0.798497 0.0823044 -0.596346 
1.40125 8.09747 1.85625 0.862941 -0.483305 -0.147474 
25.0116 58.4466 21.079 0.97553 -0.123976 -0.181581 
29.9369 -39.6002 19.7092 0.947987 -0.222334 -0.22779 
-24.122 -39.9915 12.4701 0.881334 -0.331067 -0.337114 
24.9969 -36.5962 11.2446 -0.149409 -0.674606 -0.7229 
37.7786 46.7241 5.17029 0.140875 -0.817077 0.559053 
2.55849 9.17382 1.99873 -0.0999917 -0.569518 -0.815874 
-31.43 1.85352 22.6527 -0.464045 -0.178252 0.867691 
-40.3417 -38.3826 12.8811 -0.824491 -0.306239 -0.475849 
-28.8616 -32.0676 22.7574 0.259197 0.0992945 0.960707 
23.2993 -42.9079 12.05 0.00134971 0.840871 -0.541234 
-23.0569 12.8641 1.20115 -0.0609256 0.576668 -0.814703 
-19.0885 32.573 22.6453 -0.868538 -0.306812 0.389239 
-8.27087 9.08248 26.2099 0.215846 -0.628904 0.746921 
0.358942 84.17 -19.8562 0.12854 0.808179 -0.574738 
-15.4035 27.0998 2.36407 -0.808723 0.106373 -0.578492 
19.7577 -43.8686 12.336 -0.733087 0.511341 -0.448457 
-23.4592 74.4934 0.758319 -0.699507 0.711093 -0.0709645 
14.2444 30.2668 1.94334 0.804858 -0.243473 -0.541224 
31.1529 -51.2951 19.5362 0.752587 -0.110892 0.649088 
-49.8865 57.4879 -31.0449 0.809416 0.424743 -0.40551 
-4.48029 39.2876 33.5857 -0.0347156 -0.216673 0.975627 
1.68849 53.2565 -34.9666 0.179013 -0.656382 -0.732883 
-20.0049 34.7957 1.94999 -0.915987 -0.395264 0.0688002 
-20.0894 35.1926 1.81253 -0.991695 -0.0533902 0.117004 
16.85 -6.3232 20.3554 -0.472606 -0.552765 0.686364 
19.4483 38.5374 1.33464 0.898879 -0.29469 -0.324307 
21.7107 -5.89866 21.3658 0.0267209 -0.332102 0.942865 
25.3935 44.6689 1.95347 0.24438 -0.957706 -0.151912 
25.2875 44.8857 1.01191 0.203668 -0.947263 -0.247409 
-20.5028 21.9287 22.4198 -0.853825 -0.095503 0.511725 
23.2219 -39.5487 29.5801 0.285123 -0.747055 0.600511 
-32.4114 -53.2353 11.2371 -0.220324 -0.963427 0.152532 
-39.0873 47.6198 1.86437 -0.440154 -0.834883 0.330507 
-49.7277 -47.8136 9.60057 -0.880922 0.391688 -0.265627 
-25.7833 -45.6641 12.4849 0.892454 0.132374 -0.431281 
-31.5244 -53.3979 11.483 -0.198011 -0.966758 0.161773 
-18.5541 -2.28037 22.1514 0.196032 -0.640576 0.742451 
-42.1554 52.017 3.05987 -0.783758 -0.297288 0.545292 
-20.8764 -29.3829 9.88126 0.959919 -0.162407 -0.228426 
45.6015 58.3903 1.86207 0.992311 0.115751 -0.043828 
-18.4529 80.8955 7.75135 -0.656771 0.663322 -0.358685 
-57.7916 55.9765 -30.2735 -0.685442 -0.592501 -0.423215 
46.2739 57.8161 0.850475 0.651246 0.308655 0.693261 
-38.4139 -11.9319 12.8349 -0.712692 0.176257 0.678973 
27.8317 7.18524 21.1992 0.754175 -0.104379 0.648325 
-35.753 -30.4053 22.4183 -0.225459 -0.0652969 0.972062 
29.2719 64.7859 2.09418 0.252047 0.92702 -0.277679 
-23.723 -26.2644 18.9317 0.563024 -0.0638189 0.823973 
18.1669 77.8821 7.46518 0.754906 0.529902 -0.386421 
33.2777 -4.89662 1.60402 0.764987 0.236223 -0.599161 
-22.1516 -19.1338 12.5477 0.996672 0.0444652 0.0683246 
28.9736 64.966 2.33458 0.388885 0.862311 -0.324327 
-28.6841 69.3854 2.99684 -0.929278 -0.115989 -0.350697 
17.5816 -16.0876 17.778 -0.742336 0.436184 0.508607 
-26.9808 71.9645 2.05887 -0.639429 0.765878 -0.0675352 
-41.6006 -13.3214 0.277198 -0.761969 -0.483399 -0.430963 
-25.278 72.694 1.80927 -0.23097 0.947115 -0.22277 
-21.5297 75.7955 1.97236 -0.670715 0.732901 0.114007 
-51.1476 -49.9556 8.86108 -0.640524 0.282725 0.714 
9.77242 43.8701 33.9946 0.0345665 -0.336703 0.940976 
-17.0229 79.9284 1.82437 -0.49442 0.776482 -0.390673 
17.8647 -49.4752 12.0722 -0.946704 0.239759 -0.215098 
13.3422 81.9782 2.39641 0.866594 0.384982 0.317495 
12.6002 -23.66 13.2138 -0.888729 0.437945 0.13552 
29.5243 -32.8529 11.1382 0.555975 -0.692881 -0.459138 
19.0736 -3.85772 22.5886 -0.0012226 -0.297091 0.954848 
-9.47914 88.2184 2.09403 -0.519624 0.854343 0.00944771 
27.5387 64.4897 13.5523 0.751265 0.567084 0.337665 
23.6991 69.4472 1.35921 0.393683 -0.170357 -0.903323 
-0.590618 90.0084 1.79609 0.0771778 0.994363 -0.0727037 
-39.5605 -53.6613 2.51786 0.0495824 -0.952237 0.301309 
-38.2828 -53.6141 2.48065 0.0538098 -0.962319 0.266546 
-32.8398 -53.0999 11.793 -0.141716 -0.987326 0.0714435 
-39.1872 -17.1442 18.0559 -0.760878 0.379624 0.52626 
35.6009 -52.7064 2.22754 0.824083 0.43814 0.359054 
-54.4539 -51.3423 2.3919 0.393482 0.0248377 -0.918997 
-26.989 -6.15408 20.3111 -0.364385 -0.573539 0.733673 
17.7096 -51.9036 12.5152 -0.935685 0.0865143 -0.342064 
3.53726 15.5835 -2.65417 0.827435 -0.188396 -0.529016 
-30.4948 -29.53 22.9605 0.0993642 -0.025114 0.994734 
-19.1589 -8.83205 14.5981 0.746893 -0.356361 0.56139 
-30.1063 62.6697 13.7627 -0.766804 -0.371243 -0.523632 
21.1158 -35.7246 11.2785 0.589695 -0.456053 -0.666539 
-19.3022 29.0281 7.12473 -0.143547 -0.0866027 -0.985847 
-33.4281 -47.6111 2.47448 0.958935 0.13774 -0.247933 
24.7667 -47.607 2.44184 0.187945 0.980426 -0.058658 
-42.5612 -16.0008 5.63611 -0.988472 0.111659 0.102256 
22.955 -52.9282 12.6655 0.0439303 -0.997539 0.054645 
-21.5944 20.4921 21.4444 -0.577089 0.492965 0.651118 
-22.6651 62.8581 30.0771 -0.751144 0.110679 0.650794 
-5.45211 33.0017 33.5509 -0.273213 -0.3112 0.910225 
22.531 -52.9592 12.6077 0.0460828 -0.992466 0.113521 
-40.9431 -3.81865 7.49811 -0.983965 0.0627559 -0.166954 
-31.1729 -26.5629 2.42405 -0.377844 -0.188204 -0.906539 
15.9275 56.1221 33.5224 0.577088 -0.346253 0.739648 
27.4037 -18.604 23.0641 0.193147 0.696875 0.690695 
-34.6844 -19.9611 22.3204 0.0543905 0.383387 0.921985 
-34.6564 57.814 -14.028 0.63411 0.240741 -0.734812 
25.1003 60.2067 22.8068 0.948557 0.112766 0.295844 
-41.2244 -52.9568 12.6004 0.0590166 -0.994374 -0.0879681 
8.34192 75.1412 33.5371 0.330546 0.838114 0.43394 
-26.5413 -26.261 21.2384 0.651473 0.19962 0.731939 
2.33959 37.4483 32.5023 0.200371 -0.408054 0.890698 
-28.9666 62.5194 21.0101 -0.924322 0.196755 0.326981 
-29.7242 55.4261 13.497 -0.666267 -0.388518 0.636508 
7.20261 41.4907 33.8268 -0.175798 -0.723067 0.668034 
-34.2298 -20.7271 22.587 0.149852 0.325824 0.933479 
-39.7608 -19.8644 2.24743 -0.577401 -0.231894 -0.782837 
22.0663 -17.9752 2.45426 -0.635919 -0.406789 -0.655843 
33.4068 -18.1353 2.42609 0.810606 -0.486998 -0.325194 
-19.4619 -2.76727 21.9738 0.293612 -0.620917 0.72681 
23.5031 47.6242 21.6158 0.960442 -0.19156 0.202129 
25.1805 -42.5177 13.7218 0.478268 0.70157 -0.528261 
-11.1634 -0.31682 12.3235 0.650345 -0.0829299 -0.755099 
16.8064 12.5128 0.888822 0.20903 0.293203 -0.932919 
32.802 -1.98266 1.52122 0.712543 0.24066 -0.659063 
-22.8301 -51.6328 22.95 0.895477 0.329285 0.299486 
-24.0228 40.7331 13.5133 -0.811457 -0.524877 0.256987 
33.4693 -3.00832 2.21635 0.942001 -0.0189665 -0.335074 
-39.8345 -2.14145 2.1699 -0.950636 0.252872 -0.17985 
-19.0681 -2.31645 2.3716 0.673238 -0.738435 0.0382682 
14.9392 -40.8778 21.1337 -0.83005 -0.481211 -0.281874 
-11.1877 4.53077 22.0878 0.422623 -0.511423 0.748223 
13.7548 -7.80113 7.50432 -0.833608 -0.451994 -0.31749 
-39.5278 -3.95806 1.70824 -0.888314 0.102444 -0.447665 
-31.4788 -23.1491 22.582 -0.0173559 0.186286 0.982342 
11.7324 32.8545 -5.798 0.23083 -0.895384 -0.380795 
-31.8717 -23.0311 22.5494 0.0122288 0.13674 0.990532 
8.45877 88.1164 11.4413 0.394902 0.91415 0.0915517 
-13.4975 5.58216 2.60188 0.653787 -0.559669 -0.509248 
26.7051 7.45625 0.937108 0.427813 0.4636 -0.77592 
-39.8774 1.25676 4.08258 -0.857194 0.25731 -0.446106 
29.9399 62.8267 12.4632 0.661557 0.530256 0.530256 
-12.9034 74.9038 31.5944 -0.411331 0.57322 0.708679 
15.9771 -40.9475 18.4932 -0.753878 -0.598341 -0.271396 
7.84934 2.45635 6.79168 -0.746575 -0.496069 -0.44333 
4.62693 8.06355 2.12639 -0.334214 -0.516513 -0.788362 
2.45859 4.57812 7.43266 -0.401855 -0.824359 -0.398678 
-32.2482 -0.981392 -2.47885 -0.283127 0.140893 -0.948677 
15.77 -40.6352 18.464 -0.76779 -0.538261 -0.347526 
-7.92844 8.30303 2.32421 -0.0013637 -0.816854 -0.576843 
51.6105 81.9241 -20.3854 -0.205869 0.395677 0.895018 
-24.7815 41.7011 11.7203 -0.727604 -0.680944 -0.0831131 
27.7906 -12.8011 18.0147 0.630666 0.19583 0.75094 
-32.1082 9.93708 2.51853 -0.553636 0.470005 -0.687446 
-29.885 10.6654 1.67244 -0.182116 0.528287 -0.829305 
-27.3044 71.513 1.21775 -0.703928 0.669283 -0.237792 
-23.0745 -38.5037 13.3148 0.827586 -0.477153 -0.295678 
-29.651 11.6763 2.35053 -0.319263 0.636904 -0.701729 
-14.5431 -4.88563 13.6575 0.584701 -0.740189 0.332032 
20.4366 39.2218 19.7016 0.21874 -0.973944 -0.0598786 
20.4698 13.8369 2.37551 0.345421 0.741115 -0.575702 
-29.9617 -23.7368 22.2594 0.436427 0.199721 0.877293 
-20.9101 16.9506 2.49189 -0.495567 0.216716 -0.841099 
19.2178 -31.3102 8.20537 0.306758 -0.535634 -0.786763 
14.7998 -10.1205 7.59119 -0.871388 -0.364732 -0.328106 
-15.6872 24.4723 2.16984 -0.758423 0.145677 -0.635273 
-15.4807 27.0237 2.45641 -0.800079 0.119349 -0.587903 
13.7688 28.4428 2.92648 0.827388 -0.390755 -0.403411 
18.6428 18.238 3.58174 0.600188 0.446379 -0.663717 
-36.1466 -27.5556 22.3951 -0.375759 -0.165901 0.911747 
35.0916 -3.14135 6.49906 0.982579 -0.156292 0.10056 
-4.49647 39.5797 33.6567 -0.0607589 -0.241796 0.968423 
19.8601 38.1975 2.41466 0.95108 -0.0630621 -0.302441 
24.4541 -43.0161 12.4802 0.472584 0.439879 -0.763656 
12.8137 82.3905 23.0446 0.553441 0.803184 0.220452 
-22.5082 -5.49982 20.8423 0.202534 -0.752933 0.626156 
-18.331 -5.81782 8.74082 0.766811 -0.554612 -0.323121 
-26.4573 44.4024 2.1683 -0.714084 -0.650751 -0.258084 
-20.0921 23.546 22.4823 -0.423862 0.486051 0.764261 
-11.4157 25.7738 -1.48136 -0.722486 0.120663 -0.680775 
38.0841 45.9485 2.22034 0.522804 -0.852426 -0.00675457 
37.0826 45.7623 2.86999 0.00996765 -0.991227 0.131794 
-29.1839 46.2078 2.32508 -0.102143 -0.99337 0.0527552 
27.4107 44.7618 2.6663 0.135001 -0.985628 -0.10155 
5.53919 77.077 33.5957 0.305282 0.11598 0.945173 
-27.0786 72.5609 12.2024 -0.802901 0.594062 0.0493876 
45.3084 53.4192 2.26127 0.955252 -0.236475 -0.17769 
-42.0452 50.9042 2.3329 -0.774768 -0.458337 0.435501 
-28.8183 -29.5137 22.5501 0.368712 0.134963 0.919694 
-43.6637 54.3112 2.35655 -0.602324 -0.212129 0.76955 
-29.1185 -29.9745 22.7122 0.286829 0.146781 0.94667 
-21.0679 -1.54155 -0.321349 0.418405 -0.224837 -0.879992 
-43.92 56.4092 2.11124 -0.731423 0.0499022 0.680095 
-43.4708 57.1768 2.47011 -0.585192 -0.0435035 0.809727 
18.1746 33.1378 12.2062 0.982708 0.0706209 -0.171166 
-20.9698 -2.85682 22.5872 0.356567 -0.390822 0.848598 
37.8274 62.8927 1.77552 0.195657 0.962527 -0.187778 
-38.6072 -41.8248 18.3322 -0.749013 0.0469021 0.660894 
16.6825 -3.12284 22.4042 -0.334107 -0.352415 0.874172 
33.6649 64.3225 2.55649 0.106156 0.993394 -0.0435797 
-35.432 65.9886 2.28135 -0.164281 0.954965 0.247089 
-32.1929 -44.748 23.3113 -0.139731 0.704663 0.695648 
-28.4592 69.275 2.59652 -0.860555 -0.234422 -0.452207 
28.9183 13.5684 12.0616 0.380538 0.899586 -0.214326 
-49.7532 -47.7233 8.07075 -0.490003 0.858603 0.150658 
-24.0212 73.3888 2.3295 -0.741224 0.635557 0.215996 
-21.3168 75.2381 22.727 -0.898839 0.395142 0.18961 
14.9824 15.4116 0.40226 0.324394 0.0423123 -0.944975 
-10.4521 88.3636 12.7094 -0.685427 0.72765 -0.0267415 
20.5043 74.2425 2.83837 0.645713 0.755056 -0.113776 
-30.9803 13.9743 7.05423 -0.621807 0.690715 -0.369147 
16.8036 -14.9247 7.70398 -0.872941 -0.21637 -0.437217 
14.3058 79.6939 2.55398 0.981063 0.106028 -0.162089 
-24.8393 -15.1127 7.44782 0.896255 -0.316588 -0.310642 
-39.7586 -39.0729 12.6782 -0.813974 -0.488385 -0.314526 
-14.1792 82.3833 3.03033 -0.786506 0.60648 -0.116574 
15.5374 -20.1573 9.87851 -0.663977 0.374002 -0.647501 
-31.1369 60.3263 11.5958 -0.517177 0.389922 0.761898 
-1.11305 90.0949 2.46783 0.0280661 0.998944 -0.0363819 
-10.3785 87.1193 2.49058 -0.8456 0.446761 0.292173 
-2.35528 6.04825 20.2465 -0.145453 -0.960515 -0.23718 
4.50325 2.79575 12.8548 -0.390753 -0.91887 -0.0546788 
-34.9303 11.8139 8.63634 -0.71509 0.671844 -0.193059 
-55.8103 -51.9785 2.72153 -0.958544 0.282951 -0.033655 
-52.8648 -51.3887 2.96549 0.34933 -0.211323 -0.912859 
-34.9999 -33.4873 22.4492 -0.422174 -0.188444 0.886712 
-53.607 -52.338 3.04767 0.528756 -0.623358 -0.576057 
22.3021 -51.8903 2.51529 -0.866204 -0.172064 -0.469132 
34.9023 -50.5319 2.94829 0.866598 0.0772494 0.492992 
24.2707 -47.5624 3.03923 -0.0406925 0.925427 -0.376734 
21.6626 -48.894 3.18596 -0.313234 0.289705 -0.904409 
-30.9218 -24.4205 1.89809 -0.31236 -0.119313 -0.942441 
-31.3991 54.3507 12.1379 -0.418164 -0.125308 0.899687 
-36.5709 -44.9766 2.98643 0.337903 0.927496 -0.159913 
-33.665 -46.4845 3.09675 0.539786 0.76024 -0.361479 
-5.00054 33.1577 33.7144 -0.171624 -0.260814 0.950011 
35.6944 53.3444 11.9693 0.659573 -0.10136 0.744774 
13.8114 -37.5012 18.9542 -0.949438 -0.237699 -0.2051 
-27.3173 -27.7645 2.74798 0.283546 -0.312929 -0.906464 
-34.2411 -26.8461 2.85879 0.155584 -0.285462 -0.945677 
-33.5006 52.1305 -12.3971 0.437322 -0.560371 -0.703373 
-32.6887 -26.8115 2.85802 -0.30931 -0.0934512 -0.946358 
-25.2085 -20.2887 18.8731 0.632645 0.240185 0.736255 
24.8411 -24.2573 2.97905 -0.358957 -0.209031 -0.909646 
24.8174 -23.4643 2.82003 -0.243082 -0.199626 -0.949242 
25.6712 -23.6042 2.79999 0.197434 -0.0175237 -0.98016 
-24.9071 -21.4931 2.5238 0.4242 0.0809961 -0.901939 
6.46462 41.8895 33.8757 -0.486634 -0.683963 0.543491 
-27.4749 -38.1826 22.382 0.335949 0.0614382 0.939874 
30.7937 -45.1881 11.7927 0.565955 0.775216 -0.280599 
21.1973 -19.1097 3.86516 -0.573539 -0.364385 -0.733673 
-27.4011 -16.3256 2.56804 0.700373 0.454161 -0.55065 
34.2097 -15.2803 2.59144 0.982732 -0.0484862 -0.178571 
16.6585 27.3241 21.8541 0.96012 0.0109798 0.279374 
19.747 -14.3848 2.86232 -0.735447 -0.279183 -0.617393 
19.1443 -13.0855 2.81322 -0.838114 -0.43394 -0.330546 
-41.8734 -9.59998 3.01668 -0.955378 0.105863 0.275766 
-4.90776 21.1344 31.1302 -0.107479 -0.218752 0.969843 
-7.31399 89.0947 5.21567 -0.284738 0.829318 -0.480787 
-12.3747 85.8273 19.0114 -0.476914 0.820039 0.316368 
-41.5267 -7.38486 2.62139 -0.907628 0.264542 0.325928 
33.8291 -2.62753 3.17886 0.821218 0.124872 -0.556783 
-31.0157 -40.4204 22.6623 -0.0845538 0.151244 0.984874 
-16.2888 0.707904 3.40205 0.769239 -0.547621 -0.329215 
-42.9888 -44.3027 8.20419 -0.397911 0.838288 -0.372747 
9.74683 2.6552 2.83552 -0.408225 -0.41783 -0.811647 
-37.9171 3.54233 2.33343 -0.943463 0.20522 -0.260313 
9.59894 3.28192 2.64904 -0.485012 -0.199711 -0.851398 
32.4915 1.41929 3.14666 0.895559 0.0814145 -0.43743 
9.25826 4.81016 2.7031 -0.584507 -0.0207272 -0.811124 
9.64243 4.52467 2.4128 -0.618641 -0.0180727 -0.785466 
-13.5682 5.06066 3.09535 0.740878 -0.565021 -0.363112 
-2.00386 5.21656 2.64737 0.0302574 -0.991772 -0.124392 
-0.563412 5.62653 3.01524 0.450181 -0.884741 -0.120711 
28.3781 -33.7582 10.7155 0.722129 -0.374983 -0.581306 
-13.918 86.4896 12.1557 -0.564297 0.824956 -0.031889 
19.0144 35.7397 13.0089 0.698666 -0.692524 0.179657 
-31.0768 -23.2816 22.5473 0.174851 0.182622 0.96751 
-21.817 21.3709 20.5102 -0.631457 0.580941 0.513585 
26.4695 9.37489 2.40161 0.725443 0.243912 -0.643614 
-40.5602 63.4625 2.64127 -0.637974 0.624579 0.450433 
-25.4875 13.757 2.99999 -0.470026 0.573733 -0.67075 
-26.7179 13.0722 2.80284 -0.122031 0.408172 -0.904712 
-29.6782 -25.7188 22.567 0.518228 -0.123388 0.846295 
17.5673 15.0548 1.98629 0.570095 0.147361 -0.808255 
18.2654 13.7618 1.78716 0.243469 0.53191 -0.811046 
-5.73219 3.40898 33.3632 -0.954307 0.261472 0.144672 
-41.7534 -19.9338 12.9541 -0.997025 -0.073735 0.0224411 
-48.3204 -53.6432 10.4455 0.0506053 -0.992988 -0.106833 
-19.5658 55.3771 33.4461 -0.838268 -0.043095 0.543553 
-34.0121 -44.5642 22.387 -0.296665 0.739258 0.604556 
25.6905 69.5363 12.3535 0.903588 0.33352 0.268873 
33.5652 -9.73952 6.72166 0.835753 -0.536335 -0.117732 
22.7028 7.80278 -0.491753 0.106552 0.576548 -0.810086 
14.5473 30.2843 2.43181 0.847179 -0.229666 -0.479105 
-35.2332 -27.8541 22.5437 -0.194751 0.0665299 0.978594 
-24.4724 -46.4874 22.9207 0.551095 0.69761 0.457859 
-13.2589 25.2006 0.0235009 -0.586172 -0.0730924 -0.806883 
-24.136 66.9307 -8.87449 -0.609218 0.435633 -0.662629 
34.1242 44.6564 2.80378 0.159193 -0.942911 0.292534 
-36.3598 46.5368 2.84857 -0.10883 -0.953249 0.28191 
31.4391 9.46196 10.3141 0.597781 0.801222 -0.0264752 
16.065 24.2439 6.03208 0.759507 0.434707 -0.483919 
-39.1203 48.3048 3.09354 -0.57551 -0.723076 0.382033 
45.636 55.9028 2.75787 0.989323 -0.0447087 -0.138712 
-24.184 -12.7544 7.57903 0.842116 -0.443629 -0.306649 
45.6248 57.112 2.59727 0.998774 -0.0407024 -0.0281786 
-43.1236 55.8053 3.00679 -0.755039 0.136056 0.641409 
-27.8611 -19.8939 1.29927 -0.169055 0.336712 -0.926307 
3.75633 6.10408 22.6475 0.0443603 -0.990713 0.128531 
18.5004 -52.6448 31.7539 0.113776 -0.755056 0.645713 
-27.6114 45.1932 13.3002 -0.97745 -0.206975 0.0418736 
19.7587 17.606 20.234 0.900414 0.189333 0.391673 
-11.2024 79.866 -14.8822 -0.835891 0.528165 -0.149425 
24.5413 43.9549 11.2963 0.879622 -0.422752 0.218051 
-24.9618 72.7751 1.8194 -0.470691 0.8666 -0.165695 
-23.0465 74.724 1.50878 -0.55787 0.807163 0.19305 
15.5887 78.2775 2.91917 0.633196 0.766034 -0.110699 
17.3399 -52.8516 22.7012 0.055517 -0.998259 0.0199023 
20.2561 54.2774 -8.60611 0.715706 0.0922075 -0.692288 
-6.41583 34.8216 33.6798 -0.217791 -0.0105952 0.975938 
-27.9877 -31.6812 22.3928 0.311062 0.0879375 0.946312 
-11.4201 85.8646 2.72953 -0.475046 0.87996 0.00132325 
8.89755 87.0814 2.87831 0.547652 0.823704 -0.146931 
-6.29141 89.5537 2.64627 -0.264219 0.962959 0.0538455 
-25.39 -25.3998 20.5085 0.711377 0.0924057 0.696709 
-1.84382 90.0962 2.76853 -0.0604418 0.99782 -0.0265096 
-42.1521 -53.6234 3.39675 -0.133234 -0.990856 0.0212726 
23.5589 -47.4156 3.54343 -0.13272 0.886229 -0.443828 
-39.807 -53.4627 3.24178 0.140641 -0.949659 0.279942 
23.598 -53.1518 3.20947 -0.0157291 -0.966735 -0.255296 
24.5267 -53.1682 3.27879 0.076476 -0.979621 -0.185727 
-6.11566 78.8862 33.1088 -0.207824 0.589606 0.780496 
-54.8488 -52.9511 3.10797 0.279335 -0.950274 0.137663 
-54.4577 -52.8459 3.29674 0.334305 -0.942363 -0.0138768 
-35.7976 -53.4321 4.14214 -0.216266 -0.959265 0.181769 
31.1202 -36.0418 19.5185 0.859228 -0.510038 -0.0398682 
14.9109 83.5404 11.0245 0.620153 0.781306 -0.0705046 
-1.80673 7.08056 12.2675 0.144772 -0.954967 0.258997 
-14.7319 42.5113 33.4291 -0.340123 -0.536782 0.772128 
28.192 -51.3729 3.08081 -0.572652 -0.407622 -0.711276 
-14.468 83.3 4.28299 -0.816762 0.206099 -0.53891 
19.6083 -4.50017 22.3188 0.120407 -0.437716 0.891014 
-14.1962 71.856 32.3853 -0.584628 -0.0320918 0.810666 
21.7062 -53.1487 11.3901 0.119696 -0.987192 0.105474 
25.4272 -47.7323 2.00716 0.324419 0.945912 0.00124299 
13.4728 -35.6399 22.3962 -0.927499 -0.00382737 0.373806 
13.5842 -35.4209 22.7346 -0.945199 -0.0635319 0.320253 
-45.9819 -47.3273 3.73203 -0.744272 0.60022 0.292907 
24.9602 -47.6244 3.15397 0.229619 0.965941 -0.1193 
-46.0246 -46.9056 2.80112 -0.565712 0.738523 0.366816 
11.0735 85.0335 15.763 0.472194 0.879686 -0.0564431 
16.466 -49.0647 31.9172 -0.0141463 0.374234 0.927226 
-43.23 -46.2078 2.5951 -0.218816 0.530974 -0.818649 
20.5146 -49.6226 3.64267 -0.640559 0.142513 -0.754569 
-32.5989 -30.9014 3.69431 -0.573949 -0.38647 -0.721958 
-32.2808 -31.2836 3.72149 -0.50184 -0.555548 -0.662965 
-28.9876 -30.2213 3.16831 -0.0106086 -0.22278 -0.974811 
-28.2186 -30.4182 3.46015 0.399737 -0.409292 -0.820177 
-27.5529 -29.0576 3.28156 0.29833 -0.377078 -0.876819 
18.0654 -50.6174 31.8625 0.0176329 -0.0446007 0.998849 
19.8122 74.9671 3.65602 0.641054 0.75017 -0.162158 
-4.50381 89.1859 15.7712 -0.159533 0.727776 0.667001 
-8.80277 1.76059 13.1787 0.580154 -0.797147 -0.167265 
-29.7397 50.8865 12.2713 -0.549926 -0.237011 0.800879 
26.1064 -25.0459 3.45154 0.189975 -0.554727 -0.810054 
10.4909 41.2812 33.0668 0.289638 -0.456915 0.841034 
29.0871 -22.4975 3.35387 0.427419 -0.182346 -0.885473 
31.5254 -20.093 3.51187 0.394888 -0.876016 -0.276875 
-41.7447 -19.5237 3.07592 -0.83389 -0.0346876 -0.550839 
-6.11989 -9.62665 54.5028 -0.74032 -0.554014 -0.380782 
33.0192 -19.0401 2.97543 0.799785 -0.56338 -0.207238 
32.2091 -26.2689 22.0253 0.825534 0.208284 0.524511 
-24.5069 -19.1008 3.88796 0.643958 0.456625 -0.613851 
11.8163 -0.914226 20.2812 -0.767286 -0.0676594 0.637726 
-12.0989 -1.15453 11.7842 0.471004 -0.212177 -0.856234 
42.7296 60.0404 4.26262 0.534958 0.602461 0.592335 
34.2828 -13.2226 3.20615 0.985612 0.137056 0.0989187 
18.5057 -18.06 6.4008 -0.815779 -0.049313 -0.576258 
-41.7999 -9.41879 3.28497 -0.975189 0.108354 0.193045 
-39.6432 -2.09476 12.3255 -0.946661 0.0394973 0.319801 
-24.8533 -10.4841 4.04487 0.548325 -0.701656 -0.454993 
-21.8071 -6.00112 20.151 0.129153 -0.613106 0.779372 
26.96 44.77 2.10366 -0.0744682 -0.994762 -0.0700224 
14.3811 -5.63905 3.237 -0.802568 -0.233503 -0.548963 
-21.0542 -5.2868 3.3898 0.51449 -0.575217 -0.635944 
-40.7368 -6.31394 3.58926 -0.874498 0.484025 -0.0311837 
-40.2006 -3.69227 3.28216 -0.91377 -0.0744553 -0.399351 
-40.1021 -4.04729 3.12645 -0.920536 -0.0995542 -0.377761 
-9.11046 75.518 33.4693 -0.365088 0.72199 0.587742 
-40.3018 63.3285 3.15515 -0.604108 0.563495 0.563495 
30.2021 -46.0998 7.37172 0.21644 0.805895 -0.551078 
32.7971 -0.0577782 2.92212 0.803762 0.542578 -0.244082 
24.1996 43.9566 2.41236 0.63264 -0.727773 -0.264789 
-44.6139 -51.6639 -1.10197 0.710605 -0.19268 -0.676694 
-38.3673 2.50213 2.21865 -0.774845 0.628214 -0.0704405 
21.801 39.895 11.3388 0.841481 -0.520215 -0.145896 
-38.896 -5.90593 12.3239 -0.826129 -0.215313 0.520721 
-14.0765 4.11664 3.32183 0.90085 -0.434034 0.00917896 
32.8238 -45.7097 13.2468 0.684102 0.708588 -0.172938 
-13.7385 4.88631 2.98561 0.860598 -0.369269 -0.350729 
-36.5378 5.85982 3.12935 -0.651118 0.492965 -0.577089 
30.5861 4.61053 2.4044 0.631784 0.332945 -0.699997 
-11.9207 6.4272 3.00234 0.444904 -0.524292 -0.72607 
-5.88848 7.15657 3.21441 -0.600891 -0.770808 -0.211625 
19.9857 37.2077 12.2624 0.789869 -0.609899 -0.064275 
-38.466 -7.59867 12.0327 -0.868881 -0.271431 0.41397 
11.8532 72.8478 33.4606 0.458337 0.435501 0.774768 
13.8223 -9.02793 12.1716 -0.850604 -0.498528 -0.167162 
-42.6337 -52.9224 11.4983 -0.00317021 -0.996504 -0.0834823 
-38.0912 -8.77966 12.5916 -0.785889 0.180891 0.591317 
-6.97986 7.26531 3.99152 -0.00907452 -0.913934 -0.405761 
4.66629 5.4039 4.49607 -0.474643 -0.635653 -0.608818 
22.2202 72.2505 22.2368 0.77058 0.399138 0.496886 
-32.5671 10.3104 3.47735 -0.857418 0.387769 -0.338333 
24.7199 -28.3706 5.44461 -0.297281 -0.657231 -0.692583 
26.1871 -39.0315 13.5075 0.488738 -0.666766 -0.562636 
-20.0274 26.8616 20.043 -0.893112 0.253271 0.37176 
20.0608 14.653 3.20128 0.0615753 0.777568 -0.625777 
-51.5373 75.95 -51.0575 0.866965 0.389905 0.310395 
18.3534 17.2222 2.74984 0.611407 0.236119 -0.755268 
17.3779 -14.1541 6.13453 -0.81728 -0.357064 -0.452281 
-21.1288 19.1216 3.44572 -0.575633 0.404097 -0.710881 
-26.5605 -36.1808 7.41284 0.394253 -0.582306 -0.710974 
-24.6043 48.8156 24.7845 -0.799048 -0.224104 0.557943 
-17.2301 21.7102 3.10018 -0.764442 0.0237578 -0.644255 
-33.9097 -44.7122 5.76352 0.147474 0.862941 -0.483305 
16.4097 15.2151 1.14924 0.572758 0.204227 -0.793876 
-15.805 28.995 3.1878 -0.861102 -0.179334 -0.475755 
17.6969 -40.5502 28.7563 -0.390369 0.157567 0.907075 
-15.8374 23.6349 2.14331 -0.700725 0.162641 -0.694645 
32.2845 -28.4496 22.0105 0.84295 -0.136338 0.52043 
19.5085 36.2022 2.74132 0.907954 -0.331893 -0.255865 
18.678 35.8823 1.76684 0.592004 -0.35716 -0.722474 
19.5567 37.2976 3.56609 0.891187 -0.412776 0.188156 
-24.7084 41.3054 3.14006 -0.876155 -0.468707 -0.112547 
24.7252 44.1298 3.2208 0.575979 -0.803378 -0.151101 
-40.0643 0.178331 10.7173 -0.853827 0.323865 0.407543 
-25.0413 -15.4638 12.4484 0.805717 0.523009 0.277996 
36.2376 63.4372 3.79779 0.548414 0.831928 -0.0844815 
-32.9793 46.0492 3.60245 0.110309 -0.96996 0.216815 
37.7734 45.876 3.17959 0.148818 -0.966667 0.208345 
-30.1435 46.3163 3.3476 0.0694988 -0.985941 0.151955 
20.9329 39.4044 3.03319 0.769576 -0.496238 -0.401872 
0.55059 79.3925 33.2185 0.0469431 0.672851 0.738287 
15.2902 72.975 30.1772 0.617039 0.698875 0.361713 
45.1313 51.166 3.35471 0.988834 -0.0780352 -0.126953 
-41.9095 51.6895 3.22403 -0.762737 -0.322758 0.560411 
-12.4595 4.19308 4.95151 0.607023 -0.479229 -0.633927 
-44.5703 -45.5877 13.1398 -0.531456 0.592194 0.605691 
-9.91502 21.4494 29.9149 -0.402255 -0.230072 0.886148 
39.6554 62.3181 3.25818 0.563947 0.795706 0.220944 
12.4433 44.9619 33.3391 0.55217 -0.150321 0.820069 
41.7771 61.8724 3.05866 0.251682 0.710725 0.656906 
28.6203 -25.4662 4.1211 0.589188 -0.599318 -0.541918 
22.4216 16.5644 5.92062 0.255884 0.773931 -0.579271 
14.7935 58.5547 35.3516 0.521813 -0.037174 0.852249 
29.0675 65.3227 3.37253 0.489219 0.804741 -0.336238 
45.1512 55.2499 5.16603 0.577897 0.0879095 0.811361 
13.6951 -31.0869 22.5616 -0.819114 0.118691 0.561217 
-41.4488 -26.5513 11.5005 -0.796119 -0.545865 -0.261202 
33.757 4.00054 8.3162 0.936432 0.341366 0.0810246 
20.7668 -14.727 1.98169 -0.663351 -0.26884 -0.698348 
-31.3841 65.357 3.86575 0.0865358 0.969452 0.229508 
25.4379 68.4091 2.5068 0.64155 0.209707 -0.73786 
-29.2906 65.7147 3.75529 -0.328789 0.907457 0.26157 
23.6972 52.3291 21.9077 0.993746 0.00325108 -0.11162 
34.0325 2.74214 12.2694 0.966293 0.124807 0.225168 
29.0574 -29.5562 7.41628 0.555667 -0.286541 -0.780467 
2.38501 78.5101 33.75 0.162228 0.62617 0.762623 
-19.9867 76.6417 2.76453 -0.300835 0.881342 0.364328 
23.504 -53.0507 21.9123 -0.072853 -0.994163 -0.0795779 
-13.5842 83.9346 3.4195 -0.711606 0.593279 -0.376346 
20.4665 76.1468 21.1253 0.796654 0.506091 0.330476 
3.07857 89.4898 3.02925 0.363222 0.931632 -0.0114702 
0.842995 89.9107 3.20791 0.121382 0.992215 -0.0278399 
-52.0315 -49.2249 3.82996 0.27042 0.438478 -0.857094 
-31.4742 -53.1912 13.5993 -0.120462 -0.991844 0.0416552 
10.6696 41.7761 33.1099 0.410861 -0.184379 0.892859 
-27.8276 -33.7164 22.4532 0.281985 -0.0184706 0.959241 
29.5207 3.62362 1.06791 0.656476 0.388594 -0.646555 
-51.5301 -51.6476 3.85118 0.556854 -0.590706 -0.583935 
-53.9295 -50.2972 2.78466 0.287497 0.39702 -0.871619 
-53.9302 -49.9046 3.00741 0.123923 0.526307 -0.841216 
27.9002 -49.6578 4.08694 -0.282193 0.601054 -0.747731 
-51.35 -49.9036 3.70816 0.272521 0.418677 -0.866281 
20.6084 -48.8014 3.77689 -0.694324 0.230396 -0.681786 
-21.0372 55.9025 32.2036 -0.521509 0.32375 0.78944 
7.54679 3.22258 20.6906 -0.306674 -0.855298 0.417632 
33.5316 -48.0555 3.8585 0.860135 0.473891 0.188665 
22.9703 -47.8305 3.15436 -0.340456 0.646704 -0.682542 
23.6417 -47.2443 3.76822 0.0708813 0.669756 -0.739191 
-2.6384 5.71777 8.33826 -0.165972 -0.968815 0.183985 
22.6477 -46.9885 3.80337 0.125138 0.414783 -0.901274 
-45.5904 -46.9042 3.51135 -0.646065 0.750995 0.136408 
-33.28 -46.5586 3.6727 0.665757 0.669013 -0.330437 
12.1272 -26.9611 12.984 -0.829927 -0.198034 -0.521539 
-32.531 -31.0403 3.72075 -0.551701 -0.410071 -0.72627 
-41.5049 -45.1256 3.50438 -0.0800336 0.731944 -0.676648 
-22.8818 -20.6011 4.7112 0.794032 0.161217 -0.586107 
-36.1014 -44.6748 4.24552 0.382628 0.86514 -0.324235 
32.5194 -47.2757 3.09556 0.318378 0.917678 -0.237703 
32.9625 -47.3877 3.91066 0.701468 0.695407 0.15605 
-27.2954 -30.2078 3.73531 0.225717 -0.299536 -0.927001 
-29.1248 -32.2585 4.024 0.348065 -0.251135 -0.903206 
34.5611 -53.8513 -1.12496 -0.236008 -0.971585 -0.0179701 
-38.6127 5.281 11.8672 -0.997187 0.0485118 0.0571361 
32.9278 -24.4917 12.6088 0.824221 -0.040444 0.564822 
-36.5706 -27.9803 3.44517 -0.303339 -0.608282 -0.73347 
21.0501 -17.4016 3.165 -0.694796 -0.387832 -0.605677 
17.3055 33.5882 21.7997 0.921509 -0.0684089 0.382285 
-40.4207 -30.975 12.6545 -0.805847 -0.346275 -0.480317 
-32.3182 -48.547 4.53706 0.836574 0.485306 -0.254208 
-39.2939 -24.5608 3.80468 -0.655403 -0.0953047 -0.749242 
34.4546 45.3307 5.87408 0.226851 -0.91174 0.342444 
-39.8559 -23.3938 3.70032 -0.471413 -0.521387 -0.711284 
13.3184 -51.63 21.4818 -0.942302 -0.108264 -0.316774 
27.8458 -25.7235 3.84427 0.175798 -0.723067 -0.668034 
-32.2792 -30.5897 3.33108 -0.470875 -0.253076 -0.845121 
-23.4233 -23.1128 3.5032 0.680944 0.0831131 -0.727604 
-4.44604 38.7045 33.4393 -0.18847 -0.276514 0.942348 
29.3134 -22.029 3.38799 0.367212 0.0431245 -0.929137 
6.29352 41.1041 32.7782 -0.241659 -0.790457 0.562831 
14.6759 -32.9002 12.4827 -0.792474 -0.483843 -0.371322 
22.5118 -20.12 3.31904 -0.572921 -0.245091 -0.782107 
-19.2149 56.7678 33.2429 -0.763569 0.392367 0.512845 
20.7996 -17.0287 3.22748 -0.69128 -0.372733 -0.619033 
6.44099 76.1544 33.2763 0.244889 -0.0455322 0.968481 
34.2943 -15.2897 3.46215 0.995975 -0.0776226 0.0448243 
-28.6354 14.8253 20.7539 -0.031889 0.824956 0.564297 
28.9224 -34.9707 12.7476 0.7203 -0.397236 -0.568658 
-25.8824 -12.4217 4.09824 0.756671 -0.271259 -0.594867 
37.9711 59.1673 8.8932 0.723567 0.3286 0.607019 
3.05185 4.57183 32.6405 0.961127 0.188534 0.201718 
3.77378 33.0483 32.6554 -0.674233 0.424517 0.604313 
-41.7286 -8.53128 2.81649 -0.964156 0.224494 0.141444 
37.2938 -49.3 10.7742 0.60048 0.637485 0.482739 
-27.8704 -39.6686 22.4238 0.25655 -0.201673 0.945257 
15.5896 -8.21384 3.39132 -0.71164 -0.624103 -0.322589 
24.5654 44.8994 12.7794 0.693926 -0.587933 0.415693 
14.5311 -6.81205 3.94671 -0.88735 -0.441532 -0.132888 
18.1546 69.4629 30.0039 0.241675 0.227865 0.943224 
20.6266 38.6502 7.31486 0.892359 -0.409059 -0.1907 
-6.41567 4.1269 11.9913 0.56338 -0.799785 -0.207238 
-40.3888 -20.6779 2.75666 -0.383784 -0.278432 -0.880446 
30.6361 2.98451 1.58827 0.473935 0.281253 -0.834436 
32.9026 62.8573 10.703 0.135476 0.781594 0.608899 
-27.6135 45.0213 12.1697 -0.9851 -0.170873 0.0194956 
-37.8023 -39.2914 19.0946 -0.69161 0.0800811 0.717818 
-19.3394 78.934 21.4993 -0.621254 0.674267 0.399259 
-41.1335 49.4685 2.13008 -0.676269 -0.685816 0.268916 
24.3508 44.2182 1.76456 0.524893 -0.840705 -0.133051 
16.2819 -3.42302 22.1104 -0.397047 -0.39072 0.830477 
9.41509 23.4955 -0.0417484 0.661805 0.162789 -0.731789 
25.1595 61.9941 20.8642 0.959926 0.220506 -0.172972 
10.0844 74.3176 33.5651 0.465848 0.562691 0.682909 
-13.2488 4.93285 3.73143 0.612775 -0.552004 -0.565508 
21.8907 74.0843 20.3927 0.689888 0.58682 0.423907 
-19.6041 -3.09362 21.8238 0.295554 -0.483207 0.824111 
-6.11299 7.1194 3.83104 -0.358507 -0.886517 -0.292506 
31.7075 1.7775 2.00919 0.668565 0.258851 -0.69715 
-32.6553 -42.1584 22.3929 -0.440674 -0.0501691 0.896264 
-24.5595 -40.3716 11.9855 0.721634 -0.371453 -0.58418 
-0.257483 39.334 33.5873 0.0464358 -0.396694 0.916775 
-23.7319 17.7688 22.2002 -0.452296 0.48519 0.748344 
22.2382 74.0969 12.3988 0.799029 0.579334 -0.16101 
-23.2991 22.2092 9.37661 -0.631743 0.749132 -0.199254 
2.22693 -2.19995 35.3982 0.771293 -0.448426 -0.451687 
-15.2216 -3.60387 10.4041 0.572855 -0.367214 -0.732797 
-22.8508 13.7685 1.89447 -0.168704 0.63682 -0.752329 
33.3244 -47.6839 3.48091 0.637604 0.757624 0.139523 
-27.2386 13.8127 22.5618 -0.247492 0.647892 0.720405 
-0.210051 -1.46458 30.6935 0.176297 -0.688324 -0.703654 
18.6057 20.1599 4.6872 0.675481 0.330416 -0.659204 
14.1357 24.4055 3.86717 0.714084 0.258084 -0.650751 
23.4112 66.8214 22.7656 0.674625 -0.120628 0.728238 
-16.2589 26.1305 3.33997 -0.793537 0.180556 -0.581118 
17.5556 35.233 21.4396 0.901809 -0.0415395 0.430135 
16.6259 34.297 3.95713 0.622458 -0.688152 -0.372818 
-19.6744 34.2699 2.90227 -0.679866 -0.692485 -0.241344 
19.8215 -22.4654 4.55363 -0.497409 -0.409343 -0.764868 
41.7579 55.7831 6.45693 0.349543 -0.0165238 0.936775 
-20.8756 36.3206 2.88082 -0.556347 -0.812659 -0.173387 
33.2281 -51.6321 -1.51283 -0.566517 0.234367 -0.790019 
24.1283 43.657 3.23375 0.66835 -0.728697 -0.14936 
-19.8708 33.7885 7.3881 -0.999411 0.0296046 0.0173544 
-24.3717 40.6228 3.61277 -0.817077 -0.559053 -0.140875 
31.1252 44.3859 3.74181 0.272708 -0.957711 0.0917644 
18.7151 12.4268 1.0208 0.0399708 0.228924 -0.972623 
-39.0987 48.4942 3.52795 -0.693895 -0.687658 0.213626 
-2.42341 2.31655 40.8557 -0.227593 0.928749 0.29262 
44.3096 60.6188 2.9507 0.405467 0.610684 0.680192 
-42.4268 53.6051 3.7291 -0.80285 -0.41671 0.426363 
30.04 65.4338 6.79891 0.616947 0.761568 -0.198469 
39.5665 47.2011 3.6636 0.575045 -0.713451 0.400389 
-24.4809 21.5003 11.0712 -0.749069 0.660607 -0.0499379 
31.2743 64.9346 3.73224 0.249535 0.96741 0.0430233 
32.4002 64.6459 3.59703 0.30085 0.94761 -0.107352 
24.5393 54.5973 22.1043 0.95539 -0.158565 -0.249174 
-26.9699 44.5876 3.46292 -0.729959 -0.681199 -0.05593 
-27.9039 54.7981 22.1881 -0.857541 0.341471 0.384735 
-21.8923 -6.99561 4.09238 0.603167 -0.656634 -0.452793 
15.5214 67.2221 33.2924 0.564966 0.262812 0.78214 
-29.9113 65.4174 4.24254 -0.200148 0.973046 0.11455 
38.0632 -49.2538 7.67094 -0.223469 0.679785 -0.698537 
20.1753 74.6631 3.65929 0.628313 0.761545 -0.158971 
-23.7096 73.3701 3.82205 -0.344234 0.932807 -0.106645 
15.0123 78.7612 2.96534 0.383276 0.877141 -0.28935 
-41.953 -21.2729 12.3794 -0.971355 -0.022813 -0.236535 
-28.8905 57.0339 -10.1345 0.529825 0.267257 -0.804897 
12.6393 82.2049 3.80674 0.931471 0.355798 -0.0759569 
13.9555 -33.2686 14.0919 -0.830463 -0.357714 -0.42705 
-13.7619 83.6612 3.43502 -0.838213 0.401021 -0.369569 
-24.9299 73.297 9.235 -0.578246 0.815118 0.0348341 
-6.99359 89.1393 3.56631 -0.287382 0.834186 0.470686 
-42.3631 -17.1215 9.78584 -0.889315 0.392127 0.235276 
-2.34959 90.0309 3.78812 -0.213962 0.958178 0.190041 
23.491 -53.3882 4.23546 -0.00355741 -0.971174 -0.238347 
33.3439 -53.3455 4.54002 0.253438 -0.923547 0.287803 
4.16256 89.259 12.9296 0.272099 0.940605 0.203038 
-47.6903 -52.8078 4.18382 -0.621695 -0.773039 0.12612 
-32.414 -53.258 4.05886 0.651081 -0.686801 -0.323105 
-11.2459 38.0604 30.5873 -0.408637 -0.246979 0.878645 
57.1482 80.9206 -21.7444 0.739797 0.6719 0.0353632 
-37.5818 -37.7179 8.39258 -0.576847 -0.147566 -0.803412 
-0.829842 5.47276 21.6416 -0.00613607 -0.955999 -0.293304 
34.8678 -52.3952 4.23376 0.97306 -0.216924 0.0780927 
-34.1798 -53.3463 22.5573 -0.354307 -0.889504 0.288528 
-29.6267 53.0982 12.7509 -0.640219 -0.132819 0.756623 
16.0016 -35.2427 12.5739 -0.527319 -0.564383 -0.635142 
-21.2207 -24.0599 12.4118 0.942074 0.0345129 0.333625 
29.1803 -18.585 22.4648 0.441488 0.753319 0.487442 
-41.8822 -25.1711 12.292 -0.996392 -0.046825 0.070782 
-32.2145 -48.7827 4.35534 0.764441 0.580085 -0.281302 
0.765786 5.37199 22.2083 0.198669 -0.937772 -0.284805 
28.099 -50.895 -0.249084 0.835977 0.538548 0.105399 
30.1504 -53.325 12.1222 -0.0990591 -0.99393 0.04786 
26.6738 -48.8812 3.91671 0.761331 0.453524 -0.463348 
-32.8484 -47.1303 4.09622 0.972434 0.191444 -0.133123 
36.4903 -50.2105 7.42589 -0.43282 0.475285 -0.76601 
30.3282 -46.9582 4.284 -0.383839 0.832442 -0.399635 
23.4077 -47.2785 3.69951 0.233621 0.653824 -0.719677 
17.9083 -35.6968 11.6508 -0.264789 -0.63264 -0.727773 
4.64994 86.4683 22.8218 0.512306 0.821856 0.249188 
-38.5658 -22.08 20.6052 -0.518557 0.101988 0.848939 
-11.0187 1.01467 11.4876 0.662495 -0.669006 -0.336945 
23.5065 -46.8256 4.02335 0.275686 0.415813 -0.866658 
-29.4379 -32.8596 4.20025 0.26083 -0.446919 -0.855705 
19.8483 -21.4929 4.41116 -0.505793 0.2803 -0.815846 
15.7428 -53.0137 30.6196 -0.266728 -0.815784 0.513179 
17.5238 37.2936 22.0206 0.789636 -0.382707 0.479595 
-28.55 -31.4282 3.9521 0.278943 -0.448466 -0.849158 
31.8998 -24.4979 22.4204 0.782308 -0.214479 0.584802 
17.8568 32.6187 8.82205 0.88772 -0.448784 -0.1027 
25.1453 -26.6434 4.10638 -0.240831 -0.163658 -0.95667 
26.5934 -26.1833 4.12215 0.116106 -0.220729 -0.9684 
53.9913 74.0515 -32.5506 -0.815735 -0.446826 -0.367319 
19.8176 12.6868 22.3078 0.48535 0.2267 0.844418 
31.9925 -19.9786 3.90585 0.454518 -0.878735 -0.145734 
30.1601 -38.979 22.411 0.968533 -0.194221 0.155634 
-8.16131 89.436 11.7857 -0.347721 0.935567 0.0616713 
4.64347 87.2368 20.4813 0.648742 0.745524 0.152734 
-15.2276 3.10528 23.6516 0.375895 -0.525602 0.763181 
11.683 28.9834 -0.642291 0.702588 -0.294219 -0.647924 
6.74593 88.7781 11.7658 0.324617 0.93241 0.158855 
-41.6991 -13.2314 4.40675 -0.948787 -0.259254 -0.180527 
18.9072 -15.1799 4.4417 -0.733316 -0.343081 -0.586978 
15.4671 53.0224 33.644 0.525602 -0.375895 0.763181 
10.2798 -2.95617 11.699 -0.831841 -0.520844 0.191731 
18.5858 64.7152 30.5122 0.570095 0.147361 0.808255 
-40.105 -34.8163 12.3899 -0.915307 0.141571 0.377056 
25.0751 62.5695 19.343 0.887025 -0.17624 0.426762 
-3.81458 7.03373 33.3232 -0.653389 0.49886 0.569405 
-20.3679 23.845 22.0895 -0.503242 0.621058 0.600861 
13.2742 -24.7189 19.246 -0.891752 0.206465 0.402679 
-40.567 -5.47522 4.22293 -0.961327 0.232135 -0.148199 
-40.9163 -6.79187 4.42516 -0.972499 0.207048 -0.106661 
-22.6276 38.344 11.8904 -0.869716 -0.493332 0.0147865 
-15.8579 85.0179 11.9732 -0.647274 0.755887 -0.0983387 
-4.56976 13.8571 -3.11397 -0.325686 0.105881 -0.939531 
-25.6308 44.746 19.835 -0.910375 -0.363862 0.197032 
33.6513 -6.27871 2.14933 0.870273 -0.0857619 -0.485047 
33.6392 0.495715 4.52646 0.775551 0.33559 -0.534696 
16.0579 82.1418 11.7998 0.920237 0.236879 -0.311531 
38.8301 46.2901 2.0223 0.349776 -0.894532 0.278332 
-39.1209 3.45707 4.34261 -0.901929 -0.0527365 -0.428653 
-41.2535 49.7941 2.48217 -0.71271 -0.594744 0.37192 
6.96016 5.15701 3.37177 -0.103753 -0.790568 -0.603521 
-18.7471 81.0316 11.7614 -0.702186 0.617073 0.355185 
2.41933 79.7106 32.6807 0.136454 0.682268 0.718256 
-23.8388 40.17 12.2433 -0.798969 -0.590031 0.11624 
-33.0657 -39.5834 22.1922 -0.334269 -0.313283 0.888886 
14.58 83.0346 7.85543 0.821219 0.511909 -0.252088 
-7.5944 6.72736 5.04621 0.130717 -0.877668 -0.461099 
16.9936 43.8732 29.072 0.768922 -0.553816 0.319448 
1.34249 6.48964 4.71236 -0.0841975 -0.840548 -0.535154 
-20.5159 -3.35973 22.088 0.457865 -0.504147 0.732253 
27.7674 11.3296 4.32899 0.584653 0.500409 -0.638569 
20.5065 76.9843 11.4547 0.715372 0.642082 -0.275633 
-42.2104 58.0858 4.13652 -0.841944 0.0289375 0.538789 
32.226 -52.9809 7.63484 0.569902 -0.813099 -0.118668 
-24.8929 75.1004 11.9391 -0.75105 0.650318 -0.114065 
18.0521 24.9401 11.6153 0.855534 0.173479 -0.487818 
-21.9794 18.7416 3.97035 -0.622527 0.348027 -0.700955 
-33.8698 46.0198 2.95395 -0.124705 -0.99212 0.0121394 
-19.6161 32.0008 7.04519 -0.738446 -0.507165 -0.444389 
23.7725 65.4902 22.6552 0.860606 0.50697 0.0483487 
-27.5151 44.9163 10.0707 -0.95765 -0.279262 -0.0701342 
-21.384 -4.12296 21.8863 0.258887 -0.675012 0.690895 
28.2572 -44.0555 12.4456 0.453556 0.873352 -0.177606 
-19.3067 33.5809 4.00648 -0.378831 -0.906025 -0.188695 
24.1004 64.8416 22.1532 0.895526 0.415421 -0.159556 
-49.5057 -50.1138 11.7974 -0.691689 -0.00415845 0.722184 
-29.3563 68.5009 11.7792 -0.92934 0.355774 0.0987509 
19.1084 36.2269 4.18927 0.834366 0.221176 0.504891 
-29.4188 68.3306 11.77 -0.947138 0.305145 0.0990731 
